9.751038,9.574036,9.416016,9.307007,9.151001,9.033997,8.979004,8.954041,8.8619995,8.808044,8.785034,8.802002,8.606995,8.549988,8.622986,8.942017,8.841003,8.55304,8.246033,7.9379883,7.755005,7.5599976,7.304016,7.244995,6.929016,6.6610107,6.1069946,6.019043,5.8880005,6.2820435,6.3710327,6.311035,6.358032,6.3200073,5.7700195,5.6810303,5.91803,6.171997,6.7420044,7.5060425,7.6450195,7.616028,7.601013,7.7440186,7.9400024,8.012024,8.028015,8.084045,8.119995,8.197998,8.30603,8.342041,8.411987,8.450989,8.567017,8.692993,9.158997,9.475037,9.598022,9.872986,10.320007,11.190002,12.1710205,12.911011,13.634033,14.204041,14.639038,15.1310425,15.52002,15.833008,16.058044,16.301025,16.424011,16.41803,16.413025,16.346008,16.288025,16.187012,16.090027,16.036987,15.999023,16.049011,15.984985,16.007996,16.001038,16.177002,16.473999,16.687988,16.940002,17.26001,17.564026,17.648987,17.656006,17.66504,17.697998,17.679993,17.726013,17.690002,17.75299,17.822021,17.901001,17.950012,17.959045,17.972046,17.959045,17.87799,17.710022,17.63501,17.41803,17.208008,17.098022,16.927002,16.808044,16.768005,16.670044,16.471985,16.28601,16.125,15.934021,15.695007,15.535034,15.26001,15.113037,14.7630005,14.328003,13.769043,13.096008,12.679993,11.848022,11.571045,11.466003,11.28302,11.174011,11.096008,10.94104,10.741028,10.468994,10.343994,9.994995,9.785034,9.551025,9.072998,8.510986,8.171997,8.122986,8.092041,8.057007,7.81604,7.7460327,7.5599976,7.285034,7.0010376,6.694031,6.1730347,5.497986,5.223999,5.1849976,5.111023,5.0650024,5.083008,5.0549927,5.049988,5.0289917,5.0580444,4.9800415,4.9160156,4.8500366,4.837036,4.8150024,4.8170166,4.830017,4.811035,4.802002,4.811035,4.859009,4.825989,4.8060303,4.846985,4.8500366,4.804016,4.7460327,4.66803,4.587036,4.5859985,4.5410156,4.395996,4.328003,4.226013,4.197998,4.1589966,4.0980225,4.1260376,4.0460205,3.8980103,3.7770386,3.6409912,3.611023,3.3179932,3.2260132,3.2189941,3.2180176,3.2139893,3.2390137,3.2650146,3.2860107,3.309021,3.2630005,3.231018,3.1929932,3.2139893,3.203003,3.2300415,3.1860352,3.171997,3.177002,3.1400146,3.1500244,3.1420288,3.1090088,3.111023,3.0820312,3.0790405,3.0369873
9.674011,9.400024,9.247986,9.098022,8.963989,8.905029,8.890991,8.882996,8.807007,8.754028,8.754028,8.796997,8.538025,8.213989,8.113037,8.202026,8.049011,7.632019,7.484009,7.233032,7.137024,6.9190063,6.8640137,6.627014,6.392029,6.194031,6.0200195,5.825989,6.177002,6.486023,6.7910156,7.134033,6.965027,6.7750244,5.936035,5.9520264,6.571045,6.7020264,6.993042,7.8460083,7.915039,7.9400024,7.946045,8.087036,8.098999,8.184998,8.210022,8.184998,8.304016,8.312988,8.39502,8.493042,8.468018,8.582031,8.656006,8.780029,9.209045,9.522034,9.712036,9.900024,10.19104,11.221985,12.092041,12.89801,13.437012,14.176025,14.622986,15.161987,15.5720215,15.927002,16.109985,16.335999,16.49701,16.518005,16.50299,16.450989,16.343994,16.228027,16.096985,16.052002,16.105042,16.105042,16.104004,16.15802,16.294006,16.424011,16.650024,16.967041,17.196045,17.462036,17.653992,17.786987,17.807007,17.776001,17.73999,17.791992,17.81604,17.812988,17.897034,17.987,18.03601,18.121033,18.161987,18.164001,18.164001,18.139038,18.096008,18.019043,17.888,17.677002,17.499023,17.369995,17.239014,17.174011,17.10199,16.952026,16.815002,16.692993,16.548035,16.375,16.16803,15.968018,15.673035,15.484985,15.179016,14.66803,13.939026,13.174011,12.890015,12.5,12.064026,11.778992,11.540039,11.342041,11.189026,10.957031,10.585999,10.403015,10.205994,9.973022,9.700989,9.221985,8.697998,8.289001,8.221985,8.108032,8.077026,7.894043,7.7540283,7.4299927,7.19104,7.0150146,6.7630005,6.2040405,5.6830444,5.36499,5.2560425,5.139038,5.0820312,5.061035,5.0629883,5.041992,5.0880127,5.002014,4.939026,4.903015,4.889038,4.8480225,4.8049927,4.856018,4.830017,4.7910156,4.759033,4.759033,4.819031,4.8450317,4.79303,4.807007,4.8450317,4.7579956,4.656006,4.5250244,4.4089966,4.358032,4.265991,4.1190186,4.075012,3.9780273,4.005005,4.002014,4.0250244,4.0270386,4.0109863,3.8770142,3.7200317,3.697998,3.5350342,3.3110352,3.2680054,3.2180176,3.2120361,3.2510376,3.3290405,3.2770386,3.2680054,3.2820435,3.2940063,3.2109985,3.2210083,3.2609863,3.2330322,3.2349854,3.2089844,3.1950073,3.1710205,3.1749878,3.1760254,3.1160278,3.1069946,3.0740356,3.0610352,3.0510254,3.0549927
9.496033,9.322998,9.134033,8.965027,8.889038,8.859009,8.85199,8.710999,8.67804,8.707031,8.734985,8.643005,8.39801,8.015991,7.5270386,7.476013,7.217041,6.944031,6.653015,6.6030273,6.3779907,6.3200073,6.197998,6.1019897,6.163025,6.165039,6.189026,6.2139893,6.5930176,6.965027,7.4630127,7.817993,7.5390015,7.2160034,6.436035,6.092041,6.5650024,7.041992,7.1570435,8.075012,8.155029,8.150024,8.158997,8.179016,8.27002,8.329041,8.359985,8.411011,8.421997,8.433044,8.52002,8.585022,8.552002,8.752991,8.907043,9.1970215,9.466003,9.626038,9.799988,9.971985,10.276001,10.960999,11.9210205,12.64502,13.368042,13.993042,14.650024,15.132996,15.604004,15.920044,16.145996,16.320007,16.419006,16.492004,16.481995,16.488037,16.37201,16.251038,16.131042,16.17102,16.21399,16.242004,16.281006,16.361023,16.487,16.611023,16.854004,17.085022,17.340027,17.522034,17.717041,17.809998,17.837036,17.864014,17.882996,17.880005,17.887024,17.937988,18.02002,18.044006,18.12799,18.22699,18.23999,18.30304,18.341003,18.288025,18.332031,18.272034,18.190002,17.979004,17.86499,17.74701,17.705017,17.598022,17.506042,17.40802,17.299011,17.184998,17.017029,16.781006,16.657043,16.450012,16.223999,15.963989,15.699036,15.140015,14.400024,13.716003,13.481018,13.077026,12.687012,12.403992,12.130005,11.859985,11.479004,11.213013,10.882019,10.580994,10.322998,10.145996,9.874023,9.501038,8.8619995,8.442017,8.234985,8.1119995,8.096985,8.007996,7.8410034,7.4110107,7.0700073,7.028015,6.738037,6.363037,5.894043,5.361023,5.23999,5.1920166,5.1140137,5.116028,5.0820312,5.1099854,5.0839844,5.0200195,5.019043,4.915039,4.8810425,4.842041,4.8309937,4.790039,4.770996,4.7650146,4.747986,4.715027,4.773987,4.7680054,4.835022,4.811035,4.7860107,4.7250366,4.648987,4.387024,4.1760254,4.1030273,4.098999,4.0040283,3.9440308,3.94104,3.953003,3.9890137,4.019043,4.017029,4.0410156,3.8410034,3.6450195,3.6500244,3.552002,3.2730103,3.2510376,3.2510376,3.2720337,3.3070068,3.3950195,3.3080444,3.3190308,3.3010254,3.28302,3.309021,3.2540283,3.1550293,3.1740112,3.171997,3.2340088,3.1409912,3.1870117,3.1480103,3.1520386,3.1149902,3.1050415,3.0930176,3.0790405,3.0499878,3.071045
9.328003,9.197998,9.155029,8.971985,8.808044,8.772034,8.731018,8.661987,8.639038,8.65802,8.614014,8.402039,8.067993,7.7090454,7.2109985,7.014038,6.7609863,6.5320435,6.512024,6.4639893,6.453003,6.4210205,6.392029,6.3790283,6.3790283,6.348999,6.3970337,6.705017,7.1660156,7.6610107,7.913025,7.9400024,7.858032,7.526001,6.8500366,6.104004,6.3550415,6.840027,7.6640015,8.116028,8.207031,8.242004,8.278015,8.330994,8.4210205,8.473022,8.530029,8.682007,8.66803,8.63501,8.677002,8.755005,8.743042,9.093018,9.170044,9.35199,9.619995,9.697998,9.869995,10.090027,10.414001,10.875,11.673035,12.501038,13.257019,14.007019,14.619019,15.098999,15.588989,15.890991,16.166016,16.392029,16.505005,16.53003,16.507019,16.458008,16.452026,16.301025,16.325989,16.321045,16.315002,16.337036,16.450012,16.541016,16.666016,16.817017,17.027039,17.183044,17.380005,17.56903,17.728027,17.845032,17.859009,17.926025,17.92804,17.92102,17.965027,18.01001,18.072998,18.147034,18.238037,18.304993,18.348999,18.407043,18.437012,18.463013,18.486023,18.437988,18.424988,18.369019,18.296997,18.234009,18.215027,18.163025,18.03302,17.926025,17.734009,17.571045,17.397034,17.223022,17.020996,16.817017,16.605042,16.367004,16.065002,15.492004,14.679993,14.093994,13.908997,13.56604,13.119995,12.902039,12.920044,12.281006,11.795044,11.414001,11.085022,10.7560425,10.390991,10.231018,10.143005,9.721008,9.036987,8.632019,8.338013,8.218994,8.1119995,8.007019,7.9160156,7.4970093,7.064026,6.8519897,6.5700073,6.182007,5.6329956,5.26001,5.203003,5.1329956,5.1470337,5.1099854,5.1619873,5.1279907,5.0930176,5.057007,4.9780273,4.848999,4.8309937,4.8220215,4.8120117,4.785034,4.76001,4.734009,4.734009,4.618042,4.656006,4.692993,4.743042,4.7470093,4.710022,4.6570435,4.5010376,4.291992,4.0930176,3.9970093,3.9559937,3.8840332,3.8599854,3.882019,3.8970337,3.9400024,3.981018,4.064026,4.0130005,3.7850342,3.6119995,3.6160278,3.5610352,3.361023,3.2869873,3.2369995,3.2930298,3.3099976,3.361023,3.2990112,3.302002,3.2750244,3.3190308,3.2510376,3.1710205,3.2319946,3.217041,3.1690063,3.1539917,3.1539917,3.1019897,3.139038,3.1160278,3.1480103,3.1069946,3.0960083,3.0839844,3.0679932,3.03302
9.330017,9.234985,9.179016,8.952026,8.825012,8.767029,8.704041,8.619019,8.611023,8.591003,8.450012,8.130005,7.7960205,7.4660034,7.1050415,6.830017,6.572998,6.674011,6.7390137,6.6610107,6.6400146,6.572998,6.453003,6.4520264,6.3970337,6.507019,7.13501,7.395996,7.6810303,7.9869995,8.069031,8.118042,7.9990234,7.7820435,7.3339844,6.625,6.557007,7.049011,7.802002,8.25,8.304993,8.369995,8.471008,8.53302,8.530029,8.687988,8.780029,8.838989,8.919006,8.86499,8.911987,8.953003,9.036011,9.268005,9.452026,9.590027,9.7630005,9.902039,10.077026,10.255005,10.5060425,10.916992,11.663025,12.371033,13.223999,13.988037,14.574036,15.140015,15.618042,15.916016,16.170044,16.350037,16.501038,16.554993,16.53302,16.436035,16.416992,16.473999,16.416016,16.408997,16.496033,16.544006,16.68103,16.74701,16.838013,16.992004,17.173035,17.262024,17.381042,17.56903,17.770996,17.882996,17.939026,17.933044,18.00299,17.970032,17.981995,18.051025,18.117004,18.20404,18.29602,18.380005,18.410034,18.47699,18.520996,18.591003,18.626038,18.64502,18.663025,18.756042,18.838013,18.848999,18.756042,18.650024,18.420044,18.312012,18.116028,17.966003,17.739014,17.546997,17.348022,17.082031,16.867004,16.695007,16.249023,15.769043,15.084045,14.488037,14.254028,13.9470215,13.515015,13.239014,13.10199,12.577026,12.106018,11.6119995,10.953003,10.7630005,10.387024,10.246033,10.228027,9.976013,9.468994,8.93103,8.611023,8.411011,8.124023,8.075989,7.9540405,7.6000366,7.13501,6.884033,6.6140137,6.0339966,5.361023,5.234009,5.1920166,5.1640015,5.127014,5.1900024,5.2040405,5.2269897,5.13501,4.9780273,4.944031,4.8980103,4.8460083,4.872986,4.8740234,4.851013,4.733032,4.741028,4.596985,4.538025,4.519043,4.578003,4.645996,4.6550293,4.5889893,4.5180054,4.4020386,4.241028,4.0670166,3.9819946,3.894043,3.8339844,3.8250122,3.795044,3.8640137,3.929016,3.894043,3.9400024,3.8179932,3.5830078,3.493042,3.5390015,3.538025,3.4689941,3.3810425,3.3179932,3.2780151,3.3220215,3.3359985,3.276001,3.342041,3.3240356,3.2860107,3.2139893,3.270996,3.2490234,3.2410278,3.177002,3.184021,3.1450195,3.1730347,3.139038,3.130005,3.1000366,3.1119995,3.1000366,3.098999,3.0859985,3.0839844
9.127991,9.225037,9.153015,8.911987,8.824036,8.725037,8.66803,8.407043,8.470032,8.343994,8.369995,8.157043,7.819031,7.265991,7.093994,6.7109985,6.7109985,6.991028,6.8359985,6.738037,6.65802,6.5250244,6.519043,6.4210205,6.458008,7.064026,7.5339966,7.8320312,7.924988,8.02301,8.1380005,8.119995,8.093994,7.9970093,7.6550293,6.7890015,6.913025,7.491028,7.962036,8.130005,8.367004,8.471008,8.585022,8.657043,8.755005,8.837036,8.955994,9.087036,9.1119995,9.135986,9.142029,9.179993,9.280029,9.51001,9.700989,9.8619995,10.0130005,10.129028,10.207031,10.389038,10.606995,10.89502,11.496033,12.416016,13.215027,13.994995,14.613037,15.183044,15.619995,15.924011,16.197021,16.341003,16.48999,16.53302,16.510986,16.460022,16.577026,16.663025,16.531006,16.588013,16.666016,16.743042,16.867004,16.952026,17.085999,17.179993,17.265015,17.340027,17.541016,17.653992,17.848022,17.960022,18.02002,18.061035,18.049011,18.057007,18.044006,18.106018,18.209045,18.321045,18.309998,18.43103,18.523987,18.583008,18.666992,18.756042,18.80304,18.846008,18.924988,19.083008,19.203003,19.157043,19.064026,18.972046,18.840027,18.684998,18.473022,18.285034,18.006042,17.811035,17.572998,17.379028,17.13501,16.82904,16.577026,16.096008,15.565002,15.059021,14.590027,14.187988,13.759033,13.359009,13.221985,12.842041,12.403015,11.770996,11.039001,10.648987,10.394043,10.2560425,10.164001,10.027039,9.579041,8.927002,8.729004,8.531006,8.192017,8.144043,7.994995,7.744995,7.2820435,6.9299927,6.7040405,6.3550415,5.4970093,5.238037,5.1760254,5.1900024,5.210022,5.223999,5.2210083,5.218994,5.1359863,5.0289917,4.965027,4.960022,4.8389893,4.856018,4.903015,4.795044,4.7210083,4.731018,4.6279907,4.48999,4.2839966,4.2390137,4.368042,4.390991,4.3640137,4.3220215,4.278015,4.174988,4.1050415,3.967041,3.8190308,3.8740234,3.7479858,3.6220093,3.6539917,3.7020264,3.5790405,3.6190186,3.5650024,3.5109863,3.4520264,3.44104,3.4000244,3.4119873,3.375,3.3099976,3.3580322,3.3220215,3.3140259,3.342041,3.322998,3.3060303,3.270996,3.2130127,3.2869873,3.2609863,3.210022,3.2340088,3.210022,3.184021,3.1359863,3.1119995,3.1160278,3.1480103,3.0960083,3.0870361,3.0969849,3.1019897,3.0740356
8.992004,9.0060425,8.929016,8.804016,8.755005,8.68103,8.486023,8.265991,7.958008,7.877014,7.8010254,7.696045,7.5079956,7.026001,6.790039,6.6329956,7.069031,7.3460083,7.0950317,6.6950073,6.872986,6.9589844,6.8930054,6.916992,7.2269897,7.598999,7.835022,8.02002,8.10199,8.134033,8.11499,8.101013,8.062988,8.027039,7.744995,7.012024,7.575012,7.875,8.040039,8.152039,8.39801,8.557007,8.634033,8.804016,8.890991,9.038025,9.272034,9.22699,9.291016,9.3220215,9.372009,9.392029,9.596008,9.794006,9.934998,10.100037,10.238037,10.403015,10.497986,10.676025,10.884033,11.059998,11.747986,12.6119995,13.264038,14.065002,14.7300415,15.273987,15.648987,15.960022,16.209045,16.328003,16.501038,16.570007,16.585022,16.592041,16.637024,16.64502,16.676025,16.737,16.872986,16.970032,17.095032,17.153015,17.251038,17.32904,17.367004,17.5,17.64502,17.830017,17.92804,18.00299,18.097046,18.100037,18.093994,18.103027,18.192993,18.228027,18.320007,18.429016,18.460022,18.532043,18.648987,18.710999,18.802002,18.940002,18.994019,19.019043,19.14502,19.282043,19.382019,19.374023,19.28601,19.142029,19.11499,18.981995,18.791016,18.592041,18.264038,18.020996,17.765991,17.567017,17.363037,17.064026,16.789001,16.372986,15.902039,15.42804,15.049011,14.460022,13.861023,13.515991,13.317017,13.065002,12.660034,11.885986,11.187988,10.7369995,10.450989,10.194031,10.119019,10.18103,9.6119995,8.94104,8.777039,8.363037,8.15802,8.085022,7.9849854,7.802002,7.424988,7.1099854,6.7369995,6.2059937,5.671997,5.3270264,5.2800293,5.2800293,5.2839966,5.302002,5.2750244,5.23999,5.078003,5.01001,5.0560303,4.9160156,4.843994,4.817993,4.8480225,4.79303,4.7579956,4.7390137,4.666992,4.5530396,4.296997,4.078003,4.0339966,4.04303,4.1069946,4.269043,4.343994,4.1879883,4.0130005,3.8980103,3.8690186,3.7810059,3.6329956,3.5270386,3.6030273,3.5339966,3.5109863,3.4800415,3.4660034,3.4639893,3.3859863,3.3359985,3.3469849,3.3530273,3.3359985,3.3290405,3.3619995,3.3309937,3.361023,3.3690186,3.3469849,3.2520142,3.2490234,3.2810059,3.2930298,3.2440186,3.2260132,3.2009888,3.184021,3.1669922,3.0960083,3.1190186,3.0750122,3.0870361,3.0889893,3.0839844,3.1080322,3.06604,3.040039
9.130005,8.821045,8.729004,8.653015,8.575012,8.454041,8.319031,8.164001,7.747986,7.5620117,7.273987,7.166992,7.0809937,6.8460083,6.663025,7.093994,7.3740234,7.6500244,7.6310425,7.5060425,7.630005,7.8150024,7.835022,7.894043,8.018005,8.036011,8.134033,8.262024,8.272034,8.2300415,8.19104,8.106995,8.05603,7.994995,7.7890015,7.137024,7.6030273,7.88501,8.020996,8.204041,8.317993,8.536987,8.764038,8.911987,9.096008,9.19104,9.289001,9.427002,9.517029,9.486023,9.559021,9.639038,9.7960205,10.045044,10.205994,10.379028,10.446045,10.642029,10.812988,10.946045,11.186035,11.471008,12.071045,12.781006,13.449036,14.205017,14.86499,15.348999,15.713989,15.9470215,16.218018,16.332031,16.507019,16.585999,16.683044,16.705017,16.765015,16.799988,16.884033,16.93103,17.067017,17.160034,17.256042,17.299988,17.429993,17.51001,17.559021,17.596008,17.743042,17.859009,17.984985,18.062988,18.127014,18.140015,18.163025,18.184998,18.289001,18.382996,18.459045,18.536987,18.621033,18.684021,18.782043,18.875,18.981018,19.145996,19.210999,19.29602,19.359985,19.467041,19.455994,19.475037,19.410034,19.278992,19.116028,19.08899,18.973022,18.765015,18.470032,18.195007,17.924988,17.744995,17.558044,17.368042,17.087036,16.705994,16.207031,15.754028,15.299988,14.617004,14.007996,13.562012,13.340027,13.080994,12.820007,12.147034,11.296997,10.7369995,10.434021,10.183044,10.122009,10.0460205,9.432007,8.979004,8.704041,8.410034,8.1710205,8.05304,7.8740234,7.710022,7.3970337,7.2540283,6.6140137,6.0580444,5.66803,5.507019,5.4089966,5.4089966,5.31604,5.309021,5.229004,5.108032,5.0740356,5.0289917,4.983032,4.9210205,4.840027,4.807007,4.8129883,4.802002,4.752014,4.7230225,4.640991,4.56604,4.3049927,4.11499,3.9800415,3.9620361,4.01001,4.15802,4.257019,4.1849976,4.0510254,3.9440308,3.8309937,3.7089844,3.5830078,3.5570068,3.5090332,3.5040283,3.4960327,3.5079956,3.434021,3.40802,3.3619995,3.3790283,3.3439941,3.3859863,3.3259888,3.3850098,3.3740234,3.3480225,3.4140015,3.3339844,3.2630005,3.2590332,3.295044,3.2739868,3.2659912,3.262024,3.2789917,3.2410278,3.2520142,3.2250366,3.1260376,3.1010132,3.0930176,3.0640259,3.071045,3.0679932,3.1149902,3.098999,3.0969849
9.288025,8.89502,8.708008,8.655029,8.583008,8.5060425,8.257996,7.9890137,7.752014,7.6550293,7.6170044,7.3460083,7.046997,6.6710205,6.924988,7.2839966,7.549988,7.901001,7.9260254,8.036011,8.13501,8.166016,8.153015,8.220032,8.309021,8.380005,8.402039,8.400024,8.374023,8.273987,8.143005,8.088989,8.007996,7.9310303,7.7560425,7.281006,7.694031,7.906006,8.1310425,8.26001,8.338013,8.592041,8.767029,8.976013,9.184998,9.367004,9.486023,9.546997,9.671997,9.757019,9.814026,9.889038,10.019043,10.205994,10.356018,10.616028,10.747009,10.882996,11.151001,11.446045,11.749023,12.0,12.429993,13.03302,13.7630005,14.39801,14.949036,15.35199,15.704041,15.967041,16.205994,16.397034,16.548035,16.697021,16.772034,16.815002,16.913025,16.95404,17.070007,17.117004,17.207031,17.312988,17.366028,17.424988,17.505005,17.653015,17.744995,17.809998,17.859009,17.94104,18.03601,18.151001,18.18103,18.22699,18.264038,18.299011,18.371033,18.434021,18.514038,18.580017,18.653992,18.731995,18.887024,18.981995,19.179993,19.28302,19.397034,19.50299,19.549988,19.640015,19.571045,19.562012,19.570007,19.446045,19.234009,19.041016,19.052002,18.83899,18.565002,18.324036,18.113037,17.876038,17.775024,17.583008,17.342041,16.91504,16.494019,16.109985,15.478027,14.73999,14.19104,13.791016,13.288025,12.994019,12.728027,12.083008,11.325012,10.712036,10.468018,10.286987,10.187012,9.942017,9.450989,8.887024,8.567017,8.375,8.17804,8.010986,7.767029,7.648987,7.092041,6.848999,6.3740234,5.880005,5.639038,5.5650024,5.410034,5.453003,5.3550415,5.3099976,5.2280273,5.104004,5.045044,4.9680176,4.960022,4.866028,4.776001,4.7109985,4.7390137,4.741028,4.7300415,4.6780396,4.5629883,4.483032,4.321045,4.1000366,3.9719849,3.90802,3.9390259,4.118042,4.236023,4.1500244,4.11499,4.0130005,3.8779907,3.7600098,3.6820068,3.5029907,3.4210205,3.4429932,3.4020386,3.4310303,3.3920288,3.3790283,3.3790283,3.3779907,3.3710327,3.3900146,3.3550415,3.296997,3.3060303,3.2930298,3.28302,3.2789917,3.2990112,3.269043,3.264038,3.2700195,3.2590332,3.270996,3.243042,3.270996,3.3480225,3.3060303,3.2120361,3.0740356,3.0870361,3.0889893,3.0960083,3.0820312,3.0599976,3.0770264,3.040039
9.3810425,9.049988,8.822998,8.669006,8.705994,8.571045,8.179016,8.059021,8.0460205,7.906006,7.686035,7.2730103,6.991028,6.790039,7.0950317,7.3760376,7.7180176,8.114014,8.106995,8.207031,8.265991,8.282043,8.377014,8.424988,8.557007,8.519043,8.541992,8.530029,8.491028,8.371033,8.255005,8.170044,8.038025,7.9490356,7.708008,7.590027,7.8170166,7.9800415,8.148987,8.246033,8.346008,8.554016,8.809021,9.002014,9.210999,9.518005,9.644043,9.676025,9.884033,9.983032,10.212036,10.176025,10.3810425,10.55603,10.660034,10.778015,11.017029,11.265015,11.582031,11.893005,12.192993,12.52002,12.999023,13.582031,13.992004,14.523987,15.001038,15.434021,15.755005,15.981995,16.197998,16.379028,16.567993,16.723022,16.830994,16.984009,17.119995,17.205994,17.234985,17.324036,17.420044,17.481018,17.514038,17.536987,17.666016,17.887024,17.911987,17.92102,17.945007,18.007019,18.07904,18.22699,18.269043,18.263,18.308044,18.320007,18.39801,18.541992,18.614014,18.68103,18.728027,18.791992,18.91803,18.993042,19.116028,19.189026,19.348022,19.609009,19.705017,19.728027,19.648987,19.541016,19.606995,19.679993,19.361023,19.05304,18.871033,18.79004,18.66803,18.410034,18.207031,18.009033,17.871033,17.76001,17.492004,16.976013,16.549011,16.119995,15.453003,14.770996,14.169006,13.7369995,13.387024,12.992004,12.494995,11.80304,11.05603,10.709045,10.570007,10.376038,10.113037,9.710022,9.259033,8.850037,8.486023,8.28302,8.217041,7.950012,7.76001,7.561035,7.075989,6.2040405,5.9260254,5.7490234,5.637024,5.5629883,5.5040283,5.4280396,5.3200073,5.25,5.182007,5.1019897,5.072998,4.9819946,4.8970337,4.861023,4.770996,4.7070312,4.684021,4.6520386,4.7070312,4.6170044,4.432007,4.325012,4.244995,4.1099854,3.895996,3.8720093,3.8810425,4.052002,4.267029,4.2579956,4.153015,3.9540405,3.9299927,3.7890015,3.684021,3.4780273,3.427002,3.4249878,3.4119873,3.421997,3.3760376,3.382019,3.3989868,3.361023,3.330017,3.3150024,3.304016,3.2919922,3.296997,3.3359985,3.3690186,3.295044,3.3270264,3.2700195,3.2910156,3.2700195,3.2789917,3.2919922,3.3099976,3.447998,3.4180298,3.2960205,3.19104,3.0460205,3.0650024,3.0620117,3.0670166,3.052002,3.0580444,3.052002,3.0490112
9.400024,9.109009,8.877991,8.731018,8.715027,8.648987,8.434998,8.281006,8.217041,8.036987,7.705017,7.340027,6.9570312,6.967041,7.186035,7.468994,7.697998,7.991028,8.155029,8.177002,8.307007,8.411987,8.463989,8.526001,8.598999,8.6119995,8.632996,8.661011,8.554016,8.436035,8.309021,8.13501,8.001038,7.8760376,7.6640015,7.6690063,7.868042,7.967041,8.012024,8.147034,8.559021,8.850037,9.06604,9.015991,9.329041,9.622009,9.81604,9.916016,10.005005,10.244995,10.398987,10.575989,10.707031,10.906006,11.036987,11.153992,11.41803,11.666016,11.983032,12.229004,12.572998,12.825012,13.254028,13.674988,14.142029,14.590027,14.937012,15.367004,15.739014,16.004028,16.203003,16.400024,16.593018,16.741028,16.924011,17.106018,17.278992,17.392029,17.434998,17.481995,17.595032,17.674988,17.705994,17.739014,17.884033,17.970032,18.02002,18.059998,18.111023,18.114014,18.205994,18.288025,18.348022,18.304993,18.376038,18.392029,18.5,18.57904,18.656006,18.716003,18.700989,18.718018,18.729004,18.921997,19.059998,19.15503,19.252014,19.584045,19.77301,19.660034,19.627014,19.650024,19.682007,19.519043,19.28302,18.950989,18.733032,18.632019,18.532043,18.389038,18.210999,18.098999,17.984985,17.825989,17.56903,17.078003,16.65802,16.096008,15.455994,14.725037,14.213013,13.695007,13.215027,12.773987,12.153015,11.390991,10.9210205,10.63501,10.40802,10.15802,9.846985,9.392029,9.010986,8.837036,8.541992,8.358032,8.091003,8.019043,7.759033,7.639038,7.212036,6.171997,5.835022,5.759033,5.705017,5.571045,5.517029,5.416992,5.333008,5.2720337,5.200989,5.0930176,5.0339966,4.9490356,4.8930054,4.835022,4.790039,4.7280273,4.677002,4.596985,4.460022,4.372986,4.3270264,4.233032,4.1400146,4.104004,3.981018,3.8569946,3.835022,3.9360352,4.3049927,4.171997,3.9719849,3.8779907,3.9000244,3.717041,3.5180054,3.4970093,3.4630127,3.4490356,3.3970337,3.3970337,3.413025,3.4060059,3.3980103,3.3729858,3.3290405,3.3439941,3.3530273,3.3690186,3.382019,3.354004,3.354004,3.3649902,3.3320312,3.2930298,3.288025,3.2910156,3.3010254,3.3660278,3.4660034,3.540039,3.4470215,3.3309937,3.2200317,3.0360107,3.0440063,3.0369873,3.052002,3.0289917,3.059021,3.020996,3.020996
9.350037,9.106018,8.8810425,8.703003,8.598999,8.437012,8.244995,8.152039,7.9110107,7.7789917,7.5980225,7.3550415,6.986023,6.9140015,7.1870117,7.5060425,7.7940063,8.028992,8.150024,8.23999,8.278015,8.358032,8.459045,8.523987,8.606018,8.689026,8.72699,8.627991,8.596008,8.562988,8.423035,8.27002,8.04303,7.769043,7.7460327,7.825012,7.9190063,7.973999,8.044006,8.405029,8.879028,9.163025,9.314026,9.359009,9.532043,9.829041,10.06604,10.1710205,10.278992,10.522034,10.690002,10.901001,11.182007,11.194031,11.356995,11.549011,11.721985,11.911987,12.307007,12.651001,12.811035,13.1050415,13.541992,14.049011,14.569031,14.871033,15.247009,15.558044,15.80603,15.996033,16.242004,16.434998,16.584045,16.848999,17.07904,17.30304,17.43103,17.538025,17.580994,17.648987,17.733032,17.812012,17.913025,17.955017,17.978027,18.11499,18.14801,18.183044,18.205994,18.209045,18.322021,18.387024,18.486023,18.458008,18.436035,18.457031,18.54004,18.621033,18.634033,18.651001,18.561035,18.445007,18.5,18.616028,18.91504,19.137024,19.234985,19.499023,19.767029,19.767029,19.757996,19.739014,19.710999,19.577026,19.106995,18.744995,18.585999,18.371033,18.264038,18.259033,18.187988,18.131042,17.971008,17.853027,17.585999,17.085022,16.611023,15.999023,15.491028,14.829041,14.192017,13.687012,13.221985,12.627014,11.929993,11.380005,10.872986,10.6050415,10.343018,10.027039,9.664001,9.285034,8.979004,8.780029,8.596008,8.353027,8.137024,7.9299927,7.809021,7.697998,7.302002,6.356018,5.929016,5.802002,5.6710205,5.590027,5.526001,5.392029,5.351013,5.26001,5.1690063,5.0960083,4.953003,4.983032,4.901001,4.859009,4.8080444,4.726013,4.6920166,4.5320435,4.335022,4.13501,4.186035,4.1539917,4.0230103,4.0150146,3.889038,3.7869873,3.78302,3.7930298,3.7810059,3.7800293,3.6489868,3.6190186,3.598999,3.572998,3.5750122,3.526001,3.473999,3.3950195,3.3850098,3.3920288,3.4089966,3.4140015,3.3790283,3.3980103,3.3240356,3.3970337,3.413025,3.3880005,3.3930054,3.3510132,3.3829956,3.3049927,3.2730103,3.2800293,3.290039,3.290039,3.328003,3.4470215,3.613037,3.6050415,3.5010376,3.3120117,3.1260376,3.0490112,3.0440063,3.026001,3.0419922,3.0650024,3.0460205,3.0390015,3.019043
9.304016,9.031006,8.853027,8.634033,8.530029,8.322998,8.140015,7.962036,7.7280273,7.604004,7.583008,7.335022,7.090027,6.9559937,7.0889893,7.392029,7.814026,8.044006,8.26001,8.322998,8.392029,8.479004,8.562012,8.526001,8.673035,8.772034,8.812012,8.830994,8.786011,8.710999,8.598999,8.557007,8.166016,7.936035,8.072998,8.02002,8.195007,8.385986,8.505005,8.80304,9.0720215,9.377014,9.6380005,9.700989,9.669006,9.971008,10.238037,10.371033,10.582031,10.8619995,11.038025,11.252014,11.600037,11.850037,11.944031,12.113037,12.187988,12.3550415,12.780029,13.070007,13.210022,13.449036,13.952026,14.499023,14.893005,15.163025,15.41803,15.65802,15.822998,16.04602,16.286987,16.471008,16.717041,16.949036,17.197021,17.440002,17.601013,17.700012,17.739014,17.796997,17.83899,17.924011,17.984009,18.04602,18.160034,18.213013,18.299988,18.350037,18.385986,18.437012,18.473999,18.592041,18.630005,18.55603,18.585999,18.541016,18.562988,18.47699,18.439026,18.483032,18.401001,18.398987,18.367004,18.381042,18.612,18.68103,19.052002,19.382019,19.697998,19.62799,19.452026,19.481018,19.536987,19.499023,19.15802,18.437988,18.419006,18.272034,18.148987,18.070007,18.020996,18.013,17.833008,17.54602,17.322021,16.937988,16.42102,15.914001,15.273987,14.717041,14.174011,13.494019,12.911011,12.372986,11.859985,11.3880005,11.018005,10.643005,10.335022,10.156006,9.785034,9.420044,9.061035,8.782043,8.455994,8.299988,8.091003,7.9470215,7.868042,7.718994,7.2269897,6.44104,6.0,5.8200073,5.7510376,5.6480103,5.538025,5.389038,5.346985,5.3030396,5.1760254,5.1030273,5.061035,5.0029907,4.920044,4.851013,4.814026,4.7490234,4.677002,4.572998,4.392029,4.212036,4.0880127,4.01001,3.9689941,3.9559937,3.9140015,3.8370361,3.7590332,3.6990356,3.6610107,3.6240234,3.5889893,3.5510254,3.5770264,3.540039,3.520996,3.5,3.460022,3.4039917,3.387024,3.4140015,3.4429932,3.4420166,3.4440308,3.380005,3.368042,3.4650269,3.394043,3.4180298,3.321045,3.335022,3.3900146,3.3339844,3.2529907,3.3070068,3.3030396,3.3840332,3.446045,3.5480347,3.6409912,3.6710205,3.434021,3.236023,3.078003,3.0200195,3.0250244,3.0320435,3.0060425,3.045044,3.0369873,3.0350342,3.0250244
9.096008,8.924011,8.79303,8.606018,8.424988,8.236023,7.9869995,7.821045,7.6400146,7.587036,7.4769897,7.380005,7.1589966,7.035034,7.1069946,7.5410156,8.057007,8.215027,8.295044,8.400024,8.445007,8.520996,8.690002,8.752991,8.9210205,8.936035,9.088013,9.023987,9.095032,9.009033,8.820007,8.640015,8.208008,8.171997,8.353027,8.249023,8.423035,8.717041,8.892029,9.246033,9.650024,10.033997,9.981995,9.894043,9.955994,10.113037,10.427002,10.67804,10.942993,11.455017,11.445007,11.7369995,12.174011,12.419006,12.592041,12.738037,12.871033,12.979004,13.341003,13.61499,13.804993,14.182007,14.442993,14.736023,15.109009,15.385986,15.557007,15.708008,15.947998,16.12201,16.29602,16.588013,16.801025,17.06604,17.384033,17.583008,17.709045,17.77301,17.942017,17.955994,18.004028,18.035034,18.124023,18.17102,18.22699,18.291016,18.358032,18.39502,18.517029,18.554016,18.648987,18.712036,18.801025,18.743042,18.730042,18.614014,18.518005,18.406006,18.382996,18.380005,18.401001,18.387024,18.309998,18.30304,18.37799,18.551025,18.864014,19.208008,19.395996,19.226013,18.848022,18.936035,19.062012,19.038025,18.70404,18.320007,18.27002,18.127014,18.00299,17.989014,17.937988,17.950012,17.67102,17.390015,17.064026,16.58899,16.118042,15.658997,15.080994,14.562012,14.041016,13.473022,12.821045,12.290039,11.726013,11.280029,10.88501,10.515991,10.299011,10.054016,9.731018,9.366028,9.05304,8.731995,8.544006,8.270996,7.993042,7.835022,7.700989,7.4400024,6.997986,6.4110107,5.9570312,5.8099976,5.6810303,5.616028,5.5629883,5.505005,5.416992,5.3760376,5.25,5.111023,5.059021,4.986023,4.947998,4.837036,4.795044,4.7319946,4.656006,4.5650024,4.4210205,4.2250366,4.1140137,4.035034,3.9819946,3.9000244,3.8740234,3.8909912,3.7810059,3.6940308,3.697998,3.6380005,3.6310425,3.5640259,3.5610352,3.5270386,3.571045,3.5,3.512024,3.4750366,3.5180054,3.4370117,3.4249878,3.4509888,3.4310303,3.4030151,3.420044,3.4540405,3.4730225,3.4420166,3.3740234,3.387024,3.4429932,3.322998,3.3290405,3.3259888,3.4100342,3.4500122,3.5239868,3.5889893,3.6270142,3.578003,3.389038,3.196045,3.0580444,3.0040283,3.0170288,3.0239868,2.9940186,3.0440063,3.0270386,3.007019,3.0300293
9.002014,8.80304,8.564026,8.502991,8.444031,8.291992,8.090027,8.032043,7.762024,7.734009,7.656006,7.5180054,7.328003,7.241028,7.1069946,7.4280396,7.988037,8.283997,8.394043,8.497009,8.497986,8.661011,8.991028,9.054016,9.085022,9.213989,9.343018,9.13501,9.100037,9.033997,9.0,8.795044,8.523987,8.496033,8.512024,8.608032,9.118042,9.657043,9.833008,10.291016,10.532043,10.463013,10.290039,10.242004,10.3619995,10.410034,10.590027,10.963013,11.575012,11.887024,12.031006,12.377991,12.731018,12.850037,13.095032,13.15802,13.382996,13.518005,13.817993,14.140991,14.346985,14.703003,15.039001,15.257996,15.437012,15.616028,15.717041,15.79303,15.9800415,16.13501,16.408997,16.65503,16.942993,17.221985,17.471008,17.677002,17.778992,17.916016,18.065002,18.092041,18.16803,18.212036,18.221008,18.25,18.322998,18.327026,18.382996,18.462036,18.50299,18.618042,18.697998,18.855042,18.885986,18.921997,18.858032,18.66504,18.577026,18.452026,18.402039,18.40802,18.401001,18.325989,18.332031,18.257996,18.276001,18.333008,18.575989,18.776001,18.843994,18.591003,18.413025,18.353027,18.299988,18.19403,17.987,18.119995,18.140015,17.939026,17.798035,17.79303,17.864014,17.89801,17.744995,17.476013,17.190002,16.627014,16.179016,15.781006,15.176025,14.652039,14.109009,13.801025,13.067017,12.379028,11.69104,11.262024,10.824036,10.5460205,10.309998,9.991028,9.6710205,9.393005,8.994019,8.757996,8.413025,8.257019,8.04303,7.9470215,7.7860107,7.453003,7.026001,6.627014,6.122986,5.842041,5.700012,5.5880127,5.572998,5.4680176,5.483032,5.2490234,5.221985,5.071045,5.046997,4.971985,4.9039917,4.8410034,4.8049927,4.723999,4.6430054,4.528015,4.410034,4.276001,4.075989,3.9089966,3.9379883,3.9299927,3.8599854,3.8339844,3.848999,3.7680054,3.8359985,3.7940063,3.7869873,3.7560425,3.7529907,3.6970215,3.6539917,3.6190186,3.6870117,3.630005,3.578003,3.5480347,3.4940186,3.429016,3.4280396,3.342041,3.4719849,3.4910278,3.5390015,3.4800415,3.394043,3.3770142,3.413025,3.321045,3.2980347,3.4689941,3.6010132,3.552002,3.5280151,3.5239868,3.5079956,3.4440308,3.321045,3.1520386,3.020996,3.0020142,3.005005,3.026001,3.0180054,3.03302,3.06604,3.0360107,3.1760254
8.830017,8.625,8.505005,8.457031,8.429016,8.411011,8.3810425,8.215027,8.161011,8.148987,7.9330444,7.7180176,7.4299927,7.2839966,7.2579956,7.7230225,8.15802,8.369019,8.510986,8.622986,8.611023,9.320007,9.720032,9.6970215,9.848999,9.864014,9.936035,9.864014,9.716003,9.549988,9.299988,8.914001,8.54303,8.76001,9.122986,9.570007,9.942017,10.215027,10.48999,10.782043,10.877991,10.869019,10.658997,10.488037,10.770996,11.023987,11.282043,11.807007,12.325012,12.329041,12.572998,12.973022,13.251038,13.372986,13.582031,13.733032,13.829041,14.069031,14.415039,14.728027,14.934998,15.054993,15.330017,15.569031,15.752991,15.734009,15.80304,15.936035,16.04004,16.278992,16.512024,16.752014,17.049011,17.375,17.598022,17.796997,17.937988,18.067017,18.177002,18.23999,18.267029,18.321045,18.309998,18.363037,18.384033,18.382996,18.455017,18.470032,18.562988,18.559021,18.695007,18.843994,18.934998,19.007996,18.968994,18.812988,18.737,18.592041,18.436035,18.402039,18.390015,18.317017,18.317017,18.28003,18.200989,18.119995,18.186035,18.212036,18.137024,18.049988,18.061035,17.93103,17.835999,17.778992,17.822998,17.87201,17.822021,17.73999,17.683044,17.708008,17.772034,17.768005,17.538025,17.426025,17.203003,16.859009,16.327026,15.80304,15.171997,14.497986,14.06604,13.769043,13.140991,12.283997,11.539001,11.075012,10.734985,10.366028,10.157043,9.893005,9.562988,9.270996,9.010986,8.709045,8.450012,8.213989,8.03302,7.942993,7.840027,7.653015,7.4310303,7.093994,6.434021,6.0930176,5.9070435,5.5880127,5.4400024,5.3859863,5.322998,5.2210083,5.177002,5.106018,5.0549927,5.009033,4.8859863,4.819031,4.811035,4.7180176,4.6430054,4.6050415,4.4710083,4.295044,4.244995,4.288025,4.2560425,4.005005,3.9249878,3.8580322,3.8259888,3.828003,3.8930054,3.9280396,3.8950195,3.9500122,3.94104,3.9030151,3.8480225,3.946045,3.9370117,3.9320068,3.7189941,3.6229858,3.5859985,3.4559937,3.4500122,3.3590088,3.4830322,3.4609985,3.5200195,3.4760132,3.420044,3.429016,3.3389893,3.2960205,3.40802,3.5750122,3.6010132,3.5950317,3.538025,3.4580078,3.4190063,3.3120117,3.1990356,3.1210327,3.0670166,3.045044,3.0200195,3.0100098,3.0440063,3.0350342,3.078003,3.0820312,3.3080444
8.890015,8.902039,8.887024,8.791016,8.661987,8.614014,8.420044,8.304016,8.346008,8.212036,7.7160034,7.476013,7.328003,7.229004,7.736023,8.085999,8.244019,8.559021,8.752014,8.8619995,9.085999,9.840027,10.1119995,10.217041,10.275024,10.390015,10.320007,10.321045,10.216003,10.171997,9.983032,9.465027,8.567993,9.233032,9.950989,10.433044,10.786011,10.893005,11.15802,11.296997,11.343018,11.3550415,11.249023,11.098022,11.470032,11.536011,11.981995,12.640991,12.819031,12.9470215,13.174988,13.525024,13.798035,13.884033,14.11499,14.281006,14.579041,14.684021,14.887024,15.121033,15.3810425,15.471985,15.642029,15.786011,15.827026,15.898987,15.9470215,16.015991,16.202026,16.403015,16.61499,16.843018,17.152039,17.447998,17.692017,17.867004,18.065002,18.153992,18.203003,18.291016,18.364014,18.41803,18.403992,18.41803,18.377014,18.343018,18.380005,18.455994,18.507019,18.538025,18.643005,18.77002,18.824036,18.936035,18.897034,18.795044,18.692017,18.619019,18.583008,18.580994,18.622986,18.53003,18.44403,18.453003,18.312012,18.12799,18.023987,17.999023,18.005005,17.942993,17.910034,17.815002,17.703003,17.601013,17.523987,17.493042,17.639038,17.593018,17.611023,17.663025,17.676025,17.66101,17.544006,17.408997,17.166016,16.881042,16.315002,15.754028,15.082031,14.387024,14.126038,13.754028,13.299988,12.47699,11.504028,10.939026,10.551025,10.317993,10.036011,9.890015,9.447998,9.280029,8.950989,8.614014,8.354004,8.1380005,8.048035,7.936035,7.81604,7.671997,7.491028,7.1760254,6.7820435,6.413025,5.9990234,5.572998,5.346985,5.243042,5.226013,5.174011,5.200989,5.1310425,5.093994,5.0440063,4.9609985,4.8519897,4.828003,4.7390137,4.715027,4.670044,4.645996,4.538025,4.476013,4.5770264,4.616028,4.3359985,4.0880127,4.0010376,3.9660034,3.9490356,3.979004,4.014038,3.9990234,3.9840088,4.040039,4.0150146,4.0560303,4.012024,4.0390015,4.0599976,3.929016,3.6229858,3.5889893,3.5390015,3.4310303,3.4190063,3.486023,3.546997,3.4890137,3.5480347,3.4249878,3.394043,3.31604,3.3439941,3.5339966,3.6350098,3.6149902,3.552002,3.5230103,3.3970337,3.3389893,3.2590332,3.1870117,3.144043,3.0980225,3.0889893,3.0490112,3.0900269,3.0679932,3.026001,3.0880127,3.1170044,3.1170044
9.176025,9.113037,9.049988,8.979004,8.872986,8.603027,8.132996,7.9299927,7.7390137,7.644043,7.481018,7.625,7.5440063,7.973999,8.225037,8.36499,8.460022,8.571045,8.914001,9.455994,10.145996,10.455017,10.343994,10.38501,10.588013,10.79303,10.746033,10.729004,10.585022,10.540039,10.317993,9.859985,9.403992,10.170044,10.804993,11.278992,11.481018,11.65802,11.822998,11.882019,11.916016,11.817993,11.821045,11.958008,12.177002,12.117004,12.658997,13.051025,13.299988,13.390991,13.726013,13.991028,14.265991,14.433044,14.557007,14.812012,15.051025,15.272034,15.429993,15.671997,15.789001,15.815002,15.875,15.929016,15.9210205,15.992004,16.090027,16.19403,16.398987,16.577026,16.809021,17.010986,17.278992,17.513,17.718018,17.955017,18.145996,18.257019,18.286987,18.335999,18.392029,18.453003,18.481995,18.407043,18.332031,18.314026,18.294006,18.322021,18.37201,18.368042,18.442993,18.44403,18.50299,18.523987,18.470032,18.479004,18.424011,18.375,18.460999,18.531006,18.644043,18.666992,18.647034,18.692017,18.705994,18.291016,18.072998,17.950012,17.945007,17.845032,17.845032,17.656006,17.402039,17.187988,17.380005,17.466003,17.526001,17.575012,17.705994,17.726013,17.837036,17.874023,17.64502,17.410034,17.111023,16.876038,16.356018,15.718018,14.984985,14.48999,14.111023,13.868042,13.367004,12.669006,11.663025,10.856018,10.466003,10.234009,10.096985,9.869019,9.596985,9.257996,8.907043,8.588013,8.387024,8.2630005,8.16803,7.993042,7.859009,7.762024,7.6019897,7.4230347,7.197998,6.764038,6.166992,5.7130127,5.290039,5.311035,5.160034,5.165039,5.1470337,5.182007,5.119995,4.994995,4.9890137,4.915039,4.8339844,4.7470093,4.729004,4.7269897,4.6799927,4.717041,4.6480103,4.6970215,4.7800293,4.625,4.4570312,4.1950073,4.215027,4.0790405,4.0480347,4.0650024,4.101013,4.0820312,4.0670166,4.061035,4.1019897,4.0510254,4.1170044,4.179016,3.81604,3.665039,3.545044,3.4849854,3.4349976,3.3779907,3.507019,3.519043,3.5350342,3.4750366,3.5040283,3.4800415,3.3309937,3.3859863,3.5759888,3.6640015,3.5939941,3.5230103,3.4890137,3.3970337,3.3380127,3.2479858,3.2330322,3.1890259,3.151001,3.1690063,3.145996,3.1030273,3.1099854,3.0440063,3.1099854,3.0930176,3.1119995
9.335999,9.19104,9.075989,8.906006,8.497009,8.177002,7.821045,7.7200317,7.7720337,7.842041,7.8950195,7.769043,7.932007,8.320007,8.445007,8.578003,8.744995,9.087036,9.351013,10.080017,10.369019,10.54303,10.582031,10.812988,11.087036,11.236023,11.264038,11.2300415,11.109009,10.876038,10.5060425,9.718018,10.682007,11.163025,11.609009,11.778015,12.15802,12.343018,12.540039,12.536987,12.567993,12.507996,12.531006,12.583008,12.791992,12.559998,13.11499,13.479004,13.624023,13.856018,14.118042,14.494995,14.747009,14.960999,15.069031,15.26001,15.559021,15.815002,15.937988,15.98999,15.984009,15.967041,16.0,16.028992,16.070007,16.100037,16.189026,16.37799,16.56903,16.705017,16.901001,17.171997,17.389038,17.598999,17.788025,17.958008,18.177002,18.23999,18.288025,18.25299,18.363037,18.46399,18.459045,18.265991,18.18103,18.14801,17.994019,17.890015,18.057007,17.976013,17.894043,17.953003,17.866028,17.875,17.953003,17.898987,17.869019,17.947998,18.02301,18.208008,18.401001,18.50299,18.549011,18.631042,18.631042,18.479004,18.257019,18.025024,17.89801,17.598999,17.356995,17.054016,16.846985,16.763,16.999023,17.291016,17.437988,17.650024,17.817993,17.950989,17.983032,17.903015,17.713013,17.458008,17.145996,16.765015,16.442017,15.814026,15.143005,14.439026,14.127014,13.893005,13.552002,12.81604,11.884033,11.007996,10.664001,10.329041,10.095032,9.937988,9.705994,9.372986,8.923035,8.692993,8.514038,8.369019,8.213013,8.059998,7.9110107,7.7820435,7.828003,7.6799927,7.4160156,7.0720215,6.684021,6.01001,5.4559937,5.212036,5.132019,5.096985,5.0599976,5.0289917,4.98999,4.993042,4.9589844,4.8500366,4.7839966,4.723999,4.733032,4.7490234,4.6970215,4.729004,4.752014,4.825012,4.8450317,4.854004,4.651001,4.3740234,4.156006,4.1470337,4.1290283,4.1019897,4.145996,4.0910034,4.057007,4.0650024,4.170044,4.170044,4.205017,4.210022,3.9620361,3.7260132,3.571045,3.4509888,3.5759888,3.4509888,3.4400024,3.5640259,3.580017,3.5390015,3.5640259,3.526001,3.3389893,3.4280396,3.5620117,3.618042,3.5910034,3.6359863,3.552002,3.4760132,3.3240356,3.28302,3.2219849,3.210022,3.2160034,3.2260132,3.2280273,3.2739868,3.231018,3.15802,3.1119995,3.0839844,3.1740112
9.367004,9.140015,8.574036,8.077026,7.9780273,7.8569946,7.9160156,7.920044,8.054016,8.082031,8.022034,8.080994,8.369019,8.567017,8.658997,8.947998,9.108032,9.932007,10.416016,10.497986,10.481018,10.707031,10.874023,11.153015,11.653992,11.903992,11.903992,11.916016,11.778015,11.337036,11.122986,10.549011,11.3810425,11.804016,12.072998,12.387024,12.726013,12.975037,13.126038,13.247009,13.174011,13.14502,13.06604,13.190002,13.246033,13.126038,13.509033,13.778992,14.010986,14.304993,14.567993,14.950989,15.22699,15.442017,15.580994,15.804993,16.105042,16.139038,16.177002,16.179993,16.106018,16.132019,16.137024,16.147034,16.195007,16.205994,16.350037,16.53302,16.747986,16.93103,17.104004,17.267029,17.447998,17.587036,17.74701,17.945007,18.19104,18.304016,18.286987,18.278015,18.312988,18.222046,18.06604,17.991028,17.781006,17.812012,17.517029,17.42804,17.471985,17.400024,17.340027,17.340027,17.384033,17.325989,17.366028,17.26001,17.199036,17.27002,17.361023,17.588013,17.882996,17.947021,17.992004,18.187988,18.197998,18.119019,17.856018,17.669006,17.650024,17.182007,16.743042,16.361023,16.210022,16.119995,16.407043,16.737,17.118042,17.52002,17.882019,18.114014,18.256042,17.913025,17.752014,17.44104,17.221008,16.827026,16.237,15.746033,15.186035,14.629028,14.179016,13.895996,13.647034,12.996033,12.190002,11.22699,10.979004,10.4800415,10.153015,9.984985,9.856018,9.657043,9.079041,8.694031,8.505005,8.348999,8.179016,8.023987,7.9020386,7.8460083,7.8550415,7.788025,7.6050415,7.3410034,6.9849854,6.4680176,5.846985,5.1539917,5.002014,5.0270386,5.0040283,5.049011,5.015991,4.947998,4.8530273,4.8480225,4.791992,4.78302,4.7490234,4.76001,4.7510376,4.7650146,4.825989,4.8760376,4.9140015,4.887024,4.858032,4.5230103,4.236023,4.1870117,4.184021,4.1480103,4.069031,4.087036,4.0950317,4.0720215,4.1550293,4.2420044,4.264038,4.2250366,4.0369873,3.7070312,3.5889893,3.5130005,3.572998,3.5280151,3.4620361,3.5670166,3.6619873,3.5740356,3.5360107,3.4280396,3.2720337,3.481018,3.6170044,3.5900269,3.604004,3.644043,3.619995,3.5170288,3.3240356,3.3320312,3.2540283,3.2410278,3.2540283,3.262024,3.262024,3.2579956,3.2730103,3.264038,3.2250366,3.085022,3.1890259
9.427002,8.834045,8.119019,8.1380005,8.062988,8.078003,8.18103,8.197998,8.254028,8.16803,8.205017,8.544006,8.703003,8.795044,9.23999,9.775024,10.231018,10.729004,10.868042,10.696045,10.841003,11.074036,11.166016,11.484009,12.104004,12.411011,12.5460205,12.463013,12.30304,11.934021,11.674011,11.019043,11.804016,12.356018,12.802002,13.05603,13.311035,13.567017,13.696045,13.798035,13.817017,13.72699,13.749023,13.689026,13.611023,13.651001,13.89502,14.182007,14.440002,14.715027,15.044006,15.356995,15.63501,15.981995,16.116028,16.255005,16.31604,16.362,16.286987,16.29602,16.28302,16.260986,16.307007,16.299988,16.342041,16.453003,16.54602,16.67804,16.855042,16.980042,17.174011,17.307007,17.432007,17.593018,17.743042,17.94403,18.161987,18.190002,18.127014,18.062012,17.871033,17.73999,17.621033,17.442017,17.413025,17.267029,17.122986,16.866028,16.864014,16.978027,16.914001,16.859985,16.746033,16.718018,16.778015,16.760986,16.598022,16.585999,16.716003,16.937012,17.157043,17.215027,17.332031,17.52002,17.593994,17.489014,17.342041,17.182007,16.882996,16.457031,16.126038,15.723022,15.403015,15.338989,15.6380005,15.98999,16.58899,17.02002,17.559998,17.986023,18.205017,18.14502,17.881042,17.496033,17.334045,16.830017,16.22699,15.578003,15.288025,14.765015,14.290039,13.981018,13.666992,13.220032,12.624023,11.848999,11.39801,11.090027,10.476013,10.124023,9.932007,9.692017,9.093994,8.72699,8.533997,8.264038,8.158997,7.9960327,7.9559937,7.901001,7.861023,7.817993,7.7579956,7.5250244,7.1329956,6.7420044,6.2130127,5.4110107,4.9730225,4.983032,4.9400024,5.045044,5.0029907,4.955017,4.906006,4.796997,4.7800293,4.8120117,4.785034,4.809021,4.78302,4.833008,4.8599854,4.880005,4.8670044,4.94104,4.887024,4.6589966,4.3129883,4.2230225,4.28302,4.134033,4.104004,4.134033,4.1520386,4.1430054,4.200012,4.236023,4.270996,4.264038,3.9920044,3.757019,3.6290283,3.5870361,3.5830078,3.4849854,3.4630127,3.5350342,3.639038,3.540039,3.5820312,3.3710327,3.3370361,3.5390015,3.6900024,3.5900269,3.6190186,3.6220093,3.6329956,3.5820312,3.420044,3.3580322,3.3259888,3.2919922,3.2869873,3.3240356,3.3259888,3.3049927,3.2739868,3.3220215,3.223999,3.2139893,3.3060303
9.36499,8.488037,8.216003,8.296997,8.309021,8.351013,8.335999,8.333008,8.328003,8.415039,8.61499,8.746033,8.838013,9.494995,10.145996,10.533997,10.650024,10.856018,11.165039,11.262024,11.359009,11.676025,11.903992,12.041992,12.611023,13.048035,13.19104,13.129028,12.846985,12.536987,12.026001,11.421997,12.221008,12.80603,13.319031,13.613037,13.934998,14.1970215,14.315002,14.499023,14.528992,14.442017,14.309998,14.119019,14.059998,14.179016,14.415039,14.642029,14.884033,15.244995,15.459045,15.785034,16.179993,16.481018,16.50299,16.528992,16.489014,16.442993,16.47699,16.416992,16.416016,16.437988,16.478027,16.522034,16.585999,16.635986,16.738037,16.807007,16.927002,17.072998,17.205017,17.348022,17.449036,17.494995,17.658997,17.814026,17.79004,17.736023,17.624023,17.43103,17.265015,17.119995,17.018005,16.95404,16.783997,16.585022,16.526001,16.42102,16.221008,16.387024,16.28601,16.190002,16.16101,15.973999,16.152039,15.970032,15.869995,15.815002,15.940002,16.19403,16.44104,16.515015,16.609009,16.785034,16.87799,16.866028,16.616028,16.450989,16.148987,15.786011,15.460022,15.02002,14.791992,14.65802,15.036987,15.442993,16.054016,16.510986,17.088013,17.458008,17.661987,17.772034,17.683044,17.567017,17.225037,16.729004,16.296997,15.648987,15.15802,14.777039,14.449036,13.976013,13.731018,13.212036,12.723022,12.196045,11.812988,11.38501,10.8550415,10.416016,10.098999,9.811035,9.299011,8.933044,8.372986,8.187012,8.093994,8.039001,7.9420166,7.8950195,7.8380127,7.8359985,7.8340454,7.6849976,7.3410034,6.920044,6.4260254,5.947998,5.2750244,4.929016,4.947998,4.9700317,4.9630127,4.947998,4.8690186,4.825012,4.7980347,4.7839966,4.795044,4.817993,4.819031,4.7839966,4.858032,4.932007,4.9490356,5.0150146,4.934021,4.8200073,4.415039,4.2980347,4.2789917,4.1849976,4.171997,4.210022,4.215027,4.2420044,4.2440186,4.2460327,4.2820435,4.278015,3.9990234,3.7869873,3.6820068,3.5150146,3.5510254,3.479004,3.4349976,3.5750122,3.5690308,3.578003,3.4869995,3.395996,3.3530273,3.546997,3.6950073,3.7510376,3.6780396,3.639038,3.6640015,3.5939941,3.5130005,3.4119873,3.3580322,3.3480225,3.5,3.4230347,3.3920288,3.395996,3.3430176,3.3590088,3.3309937,3.3220215,3.3389893
8.790039,8.374023,8.257019,8.394043,8.510986,8.564026,8.481995,8.567017,8.531006,8.755005,8.786011,8.926025,9.234985,10.109009,10.592041,10.875,10.97699,11.452026,11.835022,11.871033,12.337036,12.677002,13.132019,13.074036,13.330994,13.661987,13.791992,13.697998,13.350037,12.975037,12.267029,11.515991,12.554993,13.173035,13.81604,14.1119995,14.470032,14.744019,14.869019,15.05304,15.080994,14.933044,14.77002,14.647034,14.671997,14.68103,14.807007,15.096985,15.453003,15.648987,15.898987,16.27002,16.493042,16.728027,16.776001,16.656006,16.596985,16.614014,16.660034,16.574036,16.554016,16.572021,16.626038,16.72699,16.734985,16.809021,16.861023,16.919006,17.00299,17.121033,17.259033,17.353027,17.362,17.380005,17.446045,17.440002,17.21399,17.126038,17.014038,16.85199,16.674011,16.54004,16.473022,16.353027,16.166016,16.059021,15.975037,15.954041,15.518005,15.52301,15.551025,15.488037,15.429993,15.358032,15.247986,15.273987,15.243042,15.160034,15.2630005,15.467041,15.598022,15.715027,15.932007,16.095032,16.125,16.132996,15.944031,15.642029,15.492004,15.147034,14.809998,14.394043,13.856995,13.879028,14.342041,14.848999,15.473022,16.005005,16.487,16.856018,17.117004,17.189026,17.231018,17.126038,16.834045,16.442017,15.885986,15.536987,15.071045,14.726013,14.282043,14.04303,13.759033,13.444031,12.903992,12.247986,11.7560425,11.48999,11.092041,10.812012,10.44104,10.02002,9.604004,9.231018,8.491028,8.276001,8.190002,8.04303,7.960022,7.913025,7.846985,7.851013,7.8880005,7.791992,7.509033,7.163025,6.8290405,6.4370117,5.483032,4.960022,4.906006,4.9140015,4.9420166,4.901001,4.8720093,4.8500366,4.8150024,4.802002,4.7700195,4.81604,4.8170166,4.8530273,4.9490356,5.026001,5.0880127,5.0629883,5.041992,4.872986,4.5549927,4.359009,4.302002,4.2789917,4.314026,4.2630005,4.3170166,4.337036,4.304016,4.302002,4.229004,4.2210083,4.0410156,3.8640137,3.6680298,3.5629883,3.5700073,3.5549927,3.4420166,3.6430054,3.6090088,3.5369873,3.4750366,3.4230347,3.3790283,3.4979858,3.5839844,3.705017,3.7700195,3.7280273,3.6340332,3.6329956,3.613037,3.5679932,3.4890137,3.5480347,3.645996,3.670044,3.5280151,3.5490112,3.4110107,3.3729858,3.3439941,3.3460083,3.3810425
8.588013,8.546997,8.278015,8.587036,8.643005,8.639038,8.624023,8.791016,8.801025,8.963013,9.163025,9.285034,9.843994,10.606995,10.782043,11.30603,11.842041,12.3550415,12.768005,13.085022,13.25,13.450989,13.536987,13.619019,13.7630005,14.132996,14.286011,14.098022,13.694031,13.350037,12.455017,11.674011,13.061035,13.746033,14.30304,14.580994,14.968994,15.118042,15.340027,15.493042,15.525024,15.421997,15.265015,15.16803,15.195007,15.127014,15.350037,15.635986,15.890991,16.12201,16.335022,16.55603,16.68103,16.967041,16.858032,16.80304,16.759033,16.765015,16.723022,16.731018,16.749023,16.737,16.809998,16.843994,16.859009,16.92804,16.984009,17.028015,17.082031,17.177002,17.221008,17.260986,17.249023,17.19403,17.103027,16.868042,16.765015,16.514038,16.361023,16.157043,16.06604,15.936035,15.86499,15.7300415,15.600037,15.434021,15.312012,15.302002,15.048035,14.926025,14.911987,14.790039,14.734985,14.696045,14.609985,14.710999,14.621033,14.559021,14.554993,14.728027,14.8619995,15.01001,15.16803,15.333008,15.389038,15.312988,15.217041,15.059021,14.880005,14.61499,14.234985,13.6970215,13.330017,13.3810425,13.731995,14.192993,14.734985,15.356018,15.821045,16.225037,16.473999,16.600037,16.638,16.56604,16.301025,15.997986,15.353027,15.074036,14.799988,14.436035,14.088013,13.93103,13.786011,13.5720215,13.070007,12.4869995,11.841003,11.317993,11.057007,10.794006,10.587036,10.174988,9.973999,9.567017,8.72699,8.27301,8.202026,8.020996,7.939026,7.9089966,7.8930054,7.848999,7.8880005,7.929016,7.697998,7.473999,7.166992,6.821045,6.165039,5.337036,4.9039917,4.910034,4.8900146,4.890991,4.872986,4.799988,4.8270264,4.8049927,4.8150024,4.8220215,4.889038,4.9400024,4.967041,5.1260376,5.1030273,5.109009,5.0720215,4.9000244,4.73999,4.540039,4.484009,4.488037,4.541992,4.5859985,4.512024,4.4230347,4.3779907,4.3359985,4.262024,4.166992,4.122986,3.8790283,3.7670288,3.5870361,3.5310059,3.5510254,3.507019,3.526001,3.6220093,3.5790405,3.5040283,3.44104,3.401001,3.5580444,3.6450195,3.7040405,3.8110352,3.863037,3.6950073,3.6619873,3.6329956,3.619995,3.5889893,3.677002,3.7300415,3.7490234,3.6119995,3.663025,3.645996,3.4039917,3.401001,3.5159912,3.4760132
8.588989,8.455994,8.427002,8.718994,8.765015,8.851013,8.877014,8.933044,9.027039,9.278015,9.481018,9.827026,10.173035,10.687988,11.163025,11.776001,12.197998,12.721985,13.337036,13.603027,13.713989,13.6710205,13.689026,13.770996,13.994995,14.332031,14.44104,14.268005,13.958008,13.532043,12.76001,12.35199,13.31604,14.03302,14.635986,14.942017,15.492004,15.809021,16.035034,16.059998,15.939026,15.848999,15.736023,15.674988,15.526001,15.619995,15.781006,16.013,16.28601,16.502014,16.703003,16.821045,16.91803,16.963013,16.983032,16.934998,16.894043,16.876038,16.876038,16.887024,16.842041,16.894043,16.923035,16.955017,16.981018,17.084045,17.111023,17.170044,17.150024,17.122986,17.182007,17.132019,17.01001,16.890015,16.640015,16.342041,16.075989,15.911987,15.767029,15.598022,15.5,15.27002,15.108032,15.084045,15.038025,14.875,14.669006,14.558044,14.39502,14.377991,14.257019,14.165039,14.044006,13.994019,13.916016,14.015015,13.996033,13.963013,13.8810425,14.087036,14.22699,14.330994,14.426025,14.549011,14.6380005,14.6710205,14.567993,14.446045,14.2369995,14.025024,13.687988,13.311035,13.05603,12.747986,13.184998,13.734985,14.2300415,14.650024,15.134033,15.48999,15.799988,15.91803,16.014038,15.975037,15.704041,15.390015,14.9869995,14.572998,14.23999,14.080994,13.772034,13.670044,13.53302,13.583008,13.189026,12.488037,11.819031,11.278015,10.968018,10.709045,10.600037,10.400024,10.183044,9.934021,9.338013,8.640015,8.342041,8.096985,7.950012,7.8880005,8.0060425,7.903015,7.868042,7.8480225,7.8129883,7.6799927,7.3270264,7.0460205,6.436035,5.465027,4.953003,4.880005,4.903015,4.869995,4.81604,4.825012,4.819031,4.8460083,4.8569946,4.9119873,5.002014,4.986023,5.075012,5.134033,5.092041,5.0820312,5.0530396,4.9470215,4.9110107,4.851013,4.868042,4.8720093,5.040039,5.0390015,4.9110107,4.4970093,4.394043,4.356018,4.278015,4.257019,4.148987,3.868042,3.8410034,3.6660156,3.6329956,3.5560303,3.5809937,3.3920288,3.5880127,3.6099854,3.5790405,3.4990234,3.401001,3.5230103,3.6749878,3.7130127,3.8190308,3.895996,3.8070068,3.7630005,3.6929932,3.6810303,3.663025,3.7529907,3.6920166,3.717041,3.6780396,3.7399902,3.7340088,3.519043,3.4960327,3.6610107,3.8320312
8.759033,8.526001,8.392029,8.683044,9.018005,9.036011,9.074036,9.14801,9.217041,9.574036,9.994995,10.294006,10.600037,11.1050415,11.532043,12.075989,12.689026,13.195007,13.637024,13.882019,13.890015,13.848999,13.837036,13.867004,13.981995,14.30304,14.416016,14.127014,13.879028,13.433044,12.540039,12.491028,13.677002,14.309021,14.892029,15.442017,16.007019,16.217041,16.36499,16.359009,16.281006,16.234985,16.150024,16.16504,15.984985,16.028015,16.20404,16.356995,16.608032,16.747986,16.86499,16.921997,17.015991,17.091003,17.10199,17.03601,17.041992,17.026001,17.02002,17.071045,17.065002,17.065002,17.048035,17.083008,17.197021,17.186035,17.254028,17.209045,17.163025,17.163025,17.058044,16.841003,16.66101,16.332031,16.132019,15.911987,15.557007,15.280029,15.058044,15.0,14.913025,14.596008,14.411011,14.317017,14.312988,14.231018,14.040039,13.798035,13.825012,13.734985,13.773987,13.588989,13.5060425,13.434998,13.260986,13.350037,13.358032,13.325012,13.285034,13.442017,13.587036,13.565002,13.679016,13.786987,13.907043,13.89502,13.90802,13.807007,13.6380005,13.426025,13.229004,12.971985,12.450989,12.413025,12.777039,13.196045,13.578003,14.028015,14.455994,14.746033,15.049988,15.246033,15.257019,15.246033,15.093994,14.872009,14.494995,13.97699,13.859009,13.68103,13.424011,13.257996,13.062012,13.069031,13.005005,12.317017,11.726013,11.251038,10.897034,10.683044,10.561035,10.453003,10.29303,10.041016,9.729004,9.251038,8.791992,8.3619995,8.054993,7.955017,7.936035,7.8900146,7.822998,7.863037,7.8450317,7.7059937,7.4780273,7.0889893,6.6030273,5.6380005,4.9849854,4.9210205,4.88501,4.8240356,4.8500366,4.861023,4.86499,4.8099976,4.875,4.915039,4.9890137,5.0740356,5.1140137,5.1310425,5.101013,5.0859985,5.0369873,5.041992,5.019043,5.052002,5.057007,5.108032,5.151001,5.221985,4.921997,4.549011,4.434021,4.342041,4.229004,4.1000366,3.981018,3.8400269,3.7700195,3.7070312,3.6270142,3.6400146,3.5830078,3.401001,3.6190186,3.6480103,3.5700073,3.4580078,3.446045,3.5440063,3.6420288,3.6730347,3.7410278,3.8150024,3.8370361,3.8240356,3.8439941,3.880005,3.7990112,3.757019,3.8080444,3.7479858,3.7410278,3.7210083,3.639038,3.5350342,3.6550293,3.8480225,3.9100342
8.781006,8.609009,8.509033,8.720032,9.157043,9.203003,9.194031,9.296997,9.538025,10.369019,10.776001,10.9800415,11.304016,11.712036,12.069031,12.575989,13.114014,13.627014,13.932007,14.257019,14.243042,14.049011,14.109985,14.142029,14.16803,14.416016,14.254028,14.033997,13.436035,13.195007,12.814026,13.298035,14.184998,14.501038,14.828003,15.3880005,16.278015,16.46399,16.635986,16.57904,16.549011,16.507996,16.467041,16.413025,16.371033,16.423035,16.515015,16.648987,16.728027,16.814026,16.914001,16.993042,17.071045,17.111023,17.151001,17.132996,17.15802,17.16504,17.19104,17.256042,17.247986,17.254028,17.283997,17.29602,17.322021,17.307007,17.277039,17.238037,17.192993,17.054016,16.778992,16.489014,16.225037,15.960999,15.660034,15.334045,14.970032,14.752991,14.609009,14.321045,14.14801,13.880005,13.671997,13.655029,13.627991,13.622986,13.3810425,13.273987,13.241028,13.121033,13.135986,13.049988,13.014038,12.90802,12.789001,12.777039,12.728027,12.588989,12.632019,12.728027,12.743042,12.7369995,12.848999,13.0060425,13.041992,13.200989,13.139038,13.033997,13.014038,12.953003,12.718018,12.41803,12.096008,11.924988,12.30304,12.592041,12.942017,13.361023,13.783997,14.049011,14.31604,14.549988,14.56604,14.54303,14.403992,14.150024,13.893005,13.723022,13.528992,13.2560425,12.97699,12.611023,12.348022,12.499023,12.48999,11.929016,11.450989,11.065002,10.824036,10.611023,10.528992,10.375,10.28302,10.124023,10.030029,9.765991,9.26001,8.890991,8.272034,8.015015,7.9400024,7.880005,7.8129883,7.8060303,7.7789917,7.7300415,7.541992,7.241028,6.6760254,5.916992,5.090027,4.9110107,4.898987,4.8619995,4.8519897,4.934021,4.9470215,4.828003,4.9520264,4.986023,4.955017,5.0629883,5.1119995,5.109009,5.059021,5.059021,5.038025,5.059021,5.0960083,5.113037,5.1520386,5.19104,5.2510376,5.233032,4.9039917,4.63501,4.5440063,4.4050293,4.278015,4.090027,3.9819946,3.8339844,3.7860107,3.7200317,3.6799927,3.7319946,3.4910278,3.6000366,3.6619873,3.6570435,3.5830078,3.514038,3.4299927,3.460022,3.578003,3.6760254,3.7189941,3.7890015,3.8430176,3.8389893,3.8909912,3.8829956,3.8850098,3.81604,3.868042,3.9030151,3.7820435,3.7579956,3.6929932,3.65802,3.7860107,3.9500122,4.0440063
8.920044,8.765991,8.567993,8.7630005,9.221985,9.27301,9.345032,9.463013,9.934021,10.814026,11.402039,11.769043,12.113037,12.35199,12.718018,13.077026,13.515015,14.074036,14.433044,14.704041,14.707031,14.591003,14.731018,14.710999,15.026001,14.747009,14.520996,14.113037,13.510986,12.527039,12.460999,13.023987,13.827026,14.510986,14.829041,15.325012,16.309021,16.639038,16.75,16.772034,16.692993,16.708008,16.669006,16.605042,16.609985,16.587036,16.624023,16.696045,16.743042,16.880005,16.95404,17.16504,17.209045,17.151001,17.14801,17.196045,17.262024,17.257996,17.321045,17.384033,17.423035,17.467041,17.468018,17.381042,17.374023,17.421997,17.37201,17.317993,17.111023,16.757996,16.334045,16.009033,15.777039,15.571045,15.187012,14.902039,14.533997,14.179016,13.864014,13.808044,13.376038,13.229004,13.199036,13.05603,12.9869995,12.90802,12.754028,12.695007,12.619995,12.440002,12.454041,12.562012,12.476013,12.471008,12.278015,12.210999,12.023987,11.786011,11.837036,11.907043,11.843994,11.955017,12.0130005,12.14801,12.281006,12.333008,12.334045,12.335999,12.475037,12.445007,12.267029,12.085999,11.653992,11.63501,11.838989,12.090027,12.30603,12.708008,13.10199,13.364014,13.661011,13.754028,13.887024,13.834045,13.80603,13.625,13.317017,13.158997,12.838989,12.52301,12.312012,11.973022,11.697998,11.665039,11.575989,11.398987,10.950989,10.811035,10.653015,10.611023,10.483032,10.35199,10.231995,10.106995,10.05304,9.876038,9.629028,9.324036,8.762024,8.231018,8.078003,7.9869995,7.8450317,7.7820435,7.7890015,7.744995,7.575012,7.2700195,6.821045,6.0390015,5.007019,4.915039,4.8710327,4.8640137,4.8779907,4.8810425,4.8760376,4.90802,4.9730225,4.958008,4.9230347,5.0,5.125,5.137024,5.0790405,5.085022,5.1000366,5.144043,5.1400146,5.163025,5.196045,5.238037,5.2200317,5.1190186,4.971985,4.814026,4.8519897,4.6380005,4.4630127,4.151001,4.040039,4.03302,3.9390259,3.802002,3.6749878,3.6530151,3.4520264,3.7150269,3.6830444,3.6350098,3.632019,3.5650024,3.4660034,3.5880127,3.6740112,3.6780396,3.7940063,3.7980347,3.889038,3.8950195,3.9190063,3.8880005,3.8920288,3.9230347,3.9840088,4.0250244,3.9180298,3.8599854,3.8010254,3.7080078,3.8410034,3.947998,4.132019
9.007019,8.769043,8.625,8.867004,9.14801,9.515991,9.562012,9.791992,10.471985,11.31604,11.89502,12.321045,12.67804,13.14502,13.424011,13.725037,14.093018,14.539001,14.8619995,15.155029,15.291016,15.535034,15.43103,15.377014,15.520996,15.197998,14.828003,14.424011,13.643005,12.661987,12.036987,12.954041,13.729004,14.51001,15.02002,15.395996,16.16101,16.572998,16.705994,16.776001,16.795044,16.775024,16.77002,16.736023,16.690002,16.69403,16.700989,16.751038,16.874023,17.002014,17.150024,17.243042,17.260986,17.263,17.189026,17.234985,17.234985,17.416992,17.46399,17.539001,17.598022,17.642029,17.600037,17.483032,17.462036,17.437988,17.371033,17.243042,16.911987,16.513,16.014038,15.690002,15.414001,15.064026,14.608032,14.350037,13.880005,13.677002,13.358032,13.05603,12.712036,12.493042,12.369995,12.3550415,12.267029,12.226013,12.067017,11.996033,11.929993,11.8220215,11.812012,11.809021,11.853027,11.81604,11.736023,11.683044,11.453003,11.312988,11.301025,11.153992,11.170044,11.268005,11.327026,11.384033,11.467041,11.5460205,11.591003,11.55603,11.845032,11.915039,11.890991,11.653992,11.377991,11.19104,11.47699,11.527039,11.729004,11.973999,12.285034,12.541992,12.7630005,13.072998,13.218018,13.322998,13.321045,13.275024,12.856995,12.5060425,12.122986,11.710022,11.6310425,11.421997,11.186035,10.954041,10.835022,10.587036,10.593994,10.575989,10.564026,10.4470215,10.372986,10.291016,10.104004,10.049988,10.017029,10.007019,9.884033,9.584045,9.321045,8.913025,8.387024,8.106995,7.932007,7.821045,7.788025,7.726013,7.7349854,7.4639893,7.03302,6.290039,5.270996,4.939026,4.8930054,4.8710327,4.8720093,4.8760376,4.8530273,4.9039917,4.9190063,4.88501,4.9310303,4.983032,5.0809937,5.118042,5.1279907,5.1019897,5.139038,5.132019,5.171997,5.194031,5.200012,5.2440186,5.177002,5.2089844,5.156006,5.061035,5.005005,4.802002,4.5790405,4.2720337,4.083008,4.165039,4.108032,3.9210205,3.7520142,3.5610352,3.5159912,3.7680054,3.7440186,3.7200317,3.5820312,3.5230103,3.5740356,3.6950073,3.729004,3.7490234,3.8190308,3.848999,3.920044,3.955017,3.9609985,3.927002,4.0079956,4.019043,4.130005,4.1730347,4.1520386,4.057007,4.0230103,3.8320312,3.8070068,3.9230347,4.1589966
8.807007,8.657043,8.840027,9.070007,9.384033,9.709045,9.993042,10.333008,10.979004,11.705994,12.509033,12.809998,13.285034,13.7300415,14.104004,14.392029,14.8619995,15.015991,15.359985,15.587036,15.80304,16.16803,16.394043,16.254028,16.007019,15.549011,15.299011,14.958008,14.165039,13.29303,12.64801,13.152039,13.721008,14.567993,15.1310425,15.494995,16.148987,16.52002,16.765991,16.812988,16.822998,16.808044,16.815002,16.762024,16.744019,16.741028,16.730042,16.851013,16.848999,16.999023,17.22699,17.394043,17.260986,17.161987,17.16504,17.192017,17.343994,17.487,17.571045,17.596985,17.64801,17.687988,17.697021,17.66504,17.582031,17.393005,17.135986,16.855042,16.582031,16.174988,15.721985,15.335022,15.093018,14.596008,14.161987,13.640015,13.309998,13.080994,12.73999,12.109985,12.007996,11.851013,11.738037,11.695007,11.677002,11.61499,11.497986,11.502991,11.367004,11.291016,11.204041,11.333008,11.247986,11.236023,11.22699,11.184021,11.1119995,10.880005,10.9210205,10.723022,10.657043,10.699036,10.778992,10.804016,10.869019,10.932007,11.038025,11.012024,11.377991,11.465027,11.340027,11.157043,10.864014,10.9210205,11.057007,11.058044,11.160034,11.36499,11.56604,11.767029,12.007996,12.215027,12.629028,12.859009,12.867004,12.515991,12.106995,11.721985,11.455994,11.067993,11.075989,11.088013,10.894043,10.697998,10.468018,10.389038,10.413025,10.476013,10.379028,10.372009,10.325012,10.268005,10.048035,9.955994,9.978027,10.026001,10.015991,9.809998,9.584045,9.424011,9.005005,8.337036,8.093994,7.872986,7.7160034,7.7319946,7.6710205,7.3670044,6.90802,6.2910156,5.51001,4.9730225,4.929016,4.88501,4.8790283,4.8720093,4.8829956,4.8980103,4.8859863,4.901001,4.9310303,4.993042,5.0560303,5.059021,5.119995,5.116028,5.1500244,5.189026,5.205017,5.2210083,5.1849976,5.221985,5.1660156,5.1099854,5.080017,5.038025,4.8859863,4.8200073,4.6849976,4.4299927,4.3049927,4.247986,4.1170044,3.9719849,3.7579956,3.5040283,3.5859985,3.7269897,3.7410278,3.7109985,3.7120361,3.545044,3.519043,3.6669922,3.6780396,3.7730103,3.8710327,3.9320068,3.9869995,4.0250244,4.0549927,4.092041,4.046997,4.1240234,4.1470337,4.2420044,4.259033,4.2139893,4.0880127,3.9800415,4.144043,3.9609985,4.0980225
8.716003,8.824036,8.981995,9.538025,10.1380005,10.565002,11.14502,11.334045,11.528015,12.096985,12.991028,13.241028,13.929993,14.468994,14.846985,15.155029,15.387024,15.679016,15.89801,16.087036,16.223999,16.531006,16.913025,16.957031,16.901001,16.207031,15.686035,15.350037,14.921997,14.204041,13.059021,13.151001,13.866028,14.603027,15.14801,15.72699,16.22699,16.481018,16.676025,16.723022,16.657043,16.616028,16.651001,16.725037,16.778015,16.734985,16.773987,16.895996,16.947021,17.051025,17.129028,17.267029,17.25299,17.179016,17.140015,17.213013,17.400024,17.442017,17.489014,17.492004,17.567993,17.653015,17.656006,17.522034,17.37201,17.015015,16.713013,16.249023,15.981018,15.777039,15.364014,14.926025,14.549011,14.129028,13.54303,13.116028,12.744995,12.410034,12.002991,11.606018,11.455994,11.424988,11.311035,11.174011,11.1310425,11.069031,11.05304,11.018005,10.973999,10.874023,10.713989,10.841003,10.869995,10.794006,10.790039,10.778992,10.738037,10.609985,10.55603,10.468994,10.267029,10.257996,10.304993,10.408997,10.408997,10.486023,10.580017,10.595032,10.905029,10.906006,10.828003,10.734009,10.458008,10.617004,10.684021,10.626038,10.712036,10.820007,10.973022,11.153992,11.338013,11.559021,11.838013,12.126038,12.083008,11.824036,11.439026,11.1710205,10.817017,10.618042,10.665039,10.682007,10.608032,10.406006,10.290039,10.269043,10.340027,10.359009,10.31604,10.309998,10.243042,10.205017,10.027039,9.9800415,10.004028,9.981018,10.015991,9.939026,9.970032,9.785034,9.458008,8.845032,8.333008,7.942993,7.7720337,7.6810303,7.549988,7.1780396,6.86499,6.212036,5.4849854,4.9869995,4.9450073,4.9020386,4.8810425,4.887024,4.8950195,4.895996,4.910034,4.8880005,4.863037,4.859009,4.9639893,4.9379883,5.0670166,5.1260376,5.166992,5.2180176,5.203003,5.2109985,5.196045,5.2820435,5.1879883,5.1260376,5.0620117,5.049011,4.913025,4.767029,4.7210083,4.569031,4.427002,4.2770386,4.1190186,3.8779907,3.7250366,3.5310059,3.6450195,3.6920166,3.717041,3.7940063,3.736023,3.6520386,3.5130005,3.65802,3.7919922,3.8599854,3.927002,4.0180054,4.0880127,4.174988,4.174011,4.210022,4.26001,4.186035,4.223999,4.3410034,4.342041,4.1619873,4.1690063,4.2910156,4.1780396,4.0150146,4.119995
8.76001,9.299988,9.471985,10.337036,11.085999,11.3880005,11.742004,11.994019,12.179993,12.429016,13.202026,13.738037,14.369995,14.94104,15.403015,15.796997,16.06604,16.286987,16.601013,16.679993,16.777039,16.920044,17.207031,17.249023,17.160034,16.840027,16.025024,15.462036,15.1710205,14.653992,13.593018,13.343018,14.196045,14.449036,15.093018,15.539001,15.945007,16.15802,16.317017,16.265991,16.156006,16.071045,16.137024,16.46399,16.54602,16.760986,16.827026,16.92102,16.875,16.924988,16.987,17.067993,17.223022,17.041016,17.005005,16.991028,16.999023,16.96399,17.164001,17.171997,17.072998,17.105042,17.04303,16.81604,16.62201,16.42804,16.19104,15.721985,15.364014,15.164001,14.887024,14.471985,13.996033,13.544006,12.9210205,12.565002,12.14801,11.644043,11.53302,11.137024,11.221008,11.057007,10.953003,10.848022,10.728027,10.640991,10.592041,10.601013,10.609985,10.562012,10.348022,10.514038,10.493042,10.484985,10.463989,10.342041,10.335999,10.286987,10.308044,10.103027,9.997986,9.960999,9.996033,10.06604,10.044006,10.183044,10.249023,10.36499,10.596985,10.471008,10.420044,10.406006,10.197998,10.057007,10.324036,10.332031,10.317017,10.346985,10.549988,10.624023,10.7560425,10.936035,11.140015,11.192017,11.16803,11.098999,10.942017,10.7369995,10.549988,10.333008,10.364014,10.39502,10.282043,10.16803,10.1310425,10.151001,10.187012,10.184021,10.255005,10.199036,10.164001,10.153992,10.083008,10.02301,10.009033,10.028992,9.986023,10.035034,10.087036,10.014038,9.786987,9.514038,8.921997,8.221985,7.8080444,7.6619873,7.590027,7.080017,6.6690063,6.04303,5.19104,5.01001,4.953003,4.9310303,4.889038,4.8720093,4.8779907,4.9190063,4.892029,4.8790283,4.898987,4.916992,4.882019,4.936035,5.0530396,5.139038,5.200989,5.196045,5.2269897,5.200012,5.2089844,5.174988,5.1830444,5.096985,5.078003,5.046997,4.916992,4.842041,4.726013,4.5960083,4.434021,4.2349854,3.9979858,3.8339844,3.743042,3.5759888,3.6539917,3.8460083,3.7250366,3.7960205,3.7250366,3.7130127,3.5759888,3.7269897,3.8190308,3.8980103,4.0270386,4.0820312,4.166992,4.299011,4.3599854,4.4940186,4.5880127,4.481018,4.372986,4.389038,4.3450317,4.231018,4.278015,4.3980103,4.2579956,4.200989,4.3550415
9.139038,9.858032,10.343018,11.174011,11.558044,12.038025,12.382019,12.696045,13.098022,13.30603,13.718994,14.38501,14.906006,15.350037,15.776001,16.294006,16.614014,16.939026,17.104004,17.226013,17.296997,17.389038,17.458008,17.419006,17.210022,16.868042,16.225037,15.608032,15.440002,14.866028,13.90802,13.454041,14.243042,14.43103,14.846008,15.288025,15.552002,15.781006,15.775024,15.715027,15.705017,15.718994,15.815002,15.893005,16.122986,16.29303,16.384033,16.494019,16.642029,16.67804,16.869019,16.739014,16.731995,16.622986,16.554016,16.513,16.518005,16.67102,16.74701,16.567993,16.483032,16.520996,16.322021,16.18103,15.93103,15.812012,15.491028,15.061035,14.786987,14.536987,14.315002,13.876038,13.387024,12.765015,12.183044,11.700012,11.342041,10.950012,10.609985,10.528015,10.499023,10.509033,10.528992,10.366028,10.479004,10.278015,10.189026,10.254028,10.317017,10.335999,10.028015,10.052002,10.108032,9.993042,9.963989,9.979004,9.996033,9.997009,9.846008,9.692017,9.532043,9.585999,9.708008,9.728027,9.832031,9.942017,10.044006,9.994019,10.11499,10.177002,9.979004,9.983032,9.658997,9.403992,9.830994,9.942993,9.970032,10.1310425,10.291992,10.244019,10.309021,10.382996,10.541016,10.609985,10.69104,10.614014,10.5130005,10.379028,10.278015,10.145996,10.225037,10.151001,10.0130005,9.898987,10.007019,10.071045,10.027039,10.04303,10.161011,10.14801,10.137024,10.080994,10.044006,10.001038,9.984009,9.9800415,9.984009,10.071045,10.075012,10.139038,9.967041,9.629028,9.471008,8.726013,7.8690186,7.6589966,7.458008,6.73999,6.064026,5.389038,5.108032,5.023987,4.976013,4.944031,4.915039,4.887024,4.913025,4.8760376,4.8970337,4.901001,4.890991,4.9110107,4.8720093,4.9349976,5.0300293,5.179016,5.156006,5.2560425,5.244995,5.2230225,5.208008,5.2089844,5.2020264,5.1619873,5.1119995,5.0230103,4.9119873,4.90802,4.7470093,4.6480103,4.3970337,4.177002,3.9580078,3.8070068,3.7349854,3.696045,3.5960083,3.8930054,3.802002,3.75,3.7139893,3.7080078,3.6260376,3.7850342,3.8900146,3.9429932,4.166992,4.2860107,4.3880005,4.48999,4.642029,4.799011,4.8740234,4.7960205,4.666992,4.6190186,4.3480225,4.31604,4.432007,4.4160156,4.28302,4.252014,4.2960205
9.574036,10.127991,10.663025,11.778015,12.27002,12.696045,13.074036,13.520996,13.829041,14.372009,14.567017,14.973999,15.437012,15.901001,16.354004,16.726013,17.005005,17.372986,17.640991,17.765015,17.808044,17.778992,17.580017,17.54004,17.301025,16.929993,15.986023,15.757019,15.6119995,15.087036,14.161011,13.625,14.278992,14.522034,14.700989,15.031006,15.38501,15.489014,15.5130005,15.562012,15.587036,15.684021,15.718018,15.77002,15.736023,15.752991,15.6380005,15.856018,16.02301,15.853027,15.895996,15.94104,16.112,15.890015,16.007996,16.025024,15.992004,16.160034,15.970032,15.875,15.81604,15.8880005,15.825012,15.466003,15.2960205,15.135986,14.871033,14.533997,14.126038,13.914001,13.616028,13.255005,12.704041,11.91803,11.338013,10.757996,10.44104,10.1050415,9.8220215,9.696045,9.567017,9.530029,9.565002,9.85199,10.007996,9.98999,9.863037,9.958008,9.856995,9.837036,9.559021,9.512024,9.505005,9.393005,9.315002,9.384033,9.427002,9.416016,9.491028,9.186035,8.950989,8.966003,9.215027,9.335999,9.367004,9.4210205,9.644043,9.708008,9.645996,9.660034,9.536987,9.356018,9.067017,8.840027,9.244019,9.371033,9.540039,9.769043,9.869019,9.853027,9.908997,9.966003,10.075989,10.197998,10.255005,10.244019,10.1710205,10.184998,10.1380005,10.069031,9.944031,9.749023,9.564026,9.416992,9.202026,9.588013,9.726013,9.856018,10.096985,10.044006,10.039001,10.032043,10.0130005,10.015015,9.988037,10.020996,10.1380005,10.118042,10.192993,10.142029,9.843994,9.775024,9.630005,8.8880005,7.920044,7.7130127,7.3640137,6.7200317,6.2940063,5.5530396,5.122986,5.0620117,4.991028,4.950012,4.9140015,4.8900146,4.9039917,4.9089966,4.880005,4.920044,4.8970337,4.927002,4.8880005,4.936035,5.023987,5.1760254,5.2070312,5.233032,5.231018,5.217041,5.186035,5.1690063,5.174011,5.165039,5.116028,5.052002,4.932007,4.8640137,4.81604,4.6710205,4.5460205,4.273987,4.0650024,3.790039,3.7730103,3.7420044,3.540039,3.8270264,3.8370361,3.7540283,3.7869873,3.7080078,3.6500244,3.8140259,3.8909912,4.1920166,4.38501,4.5620117,4.6430054,4.682007,4.822998,4.9490356,4.9710083,4.869995,4.875,4.8099976,4.5079956,4.502014,4.578003,4.4589844,4.4140015,4.3720093,4.3320312
9.8220215,10.43103,11.196045,12.153015,12.64801,13.183044,13.721985,14.22699,14.626038,15.032043,15.345032,15.507019,16.027039,16.497986,16.775024,17.108032,17.520996,17.91101,18.070007,18.138,18.117004,18.007996,17.789001,17.544006,17.246033,16.869019,15.971985,15.710022,15.531006,15.019043,14.389038,13.975037,14.449036,14.715027,14.953003,15.228027,15.356995,15.345032,15.254028,15.246033,15.189026,15.429016,15.457031,15.337036,15.085022,15.109985,15.027039,15.25,15.325989,15.434998,15.239014,15.017029,15.140991,15.158997,15.356018,15.657043,15.455017,15.392029,15.166992,15.054016,15.077026,15.0,15.132996,14.762024,14.622009,14.434021,14.213989,13.882996,13.587036,13.223999,13.014038,12.630005,12.014038,11.31604,10.509033,10.0,9.562012,9.036011,8.689026,8.655029,8.664001,8.733032,8.934998,9.132019,9.382996,9.558044,9.55304,9.494019,9.406006,9.382019,9.109009,9.025024,9.114014,8.9800415,8.971985,8.971008,8.914001,8.924988,8.875,8.812012,8.648987,8.475037,8.565002,8.713989,8.639038,8.632996,9.033997,9.252014,9.210022,9.2300415,9.150024,8.949036,8.684998,8.4800415,8.673035,9.019043,9.202026,9.143005,9.283997,9.329041,9.452026,9.609985,9.786987,9.869019,9.952026,9.960999,9.973022,9.997986,10.03302,9.916016,9.494019,9.231018,9.174988,8.775024,8.541016,8.869019,9.03302,9.515991,9.914001,9.984985,10.028015,10.009033,10.002991,10.0060425,9.978027,10.101013,10.170044,10.080994,10.16803,10.142029,9.944031,9.812988,9.627014,8.963989,8.14502,7.665039,7.2720337,6.622986,6.234009,5.6780396,5.166992,5.041992,4.983032,4.9210205,4.861023,4.890991,4.894043,4.913025,4.8760376,4.8950195,4.8950195,4.9110107,4.8760376,4.991028,5.078003,5.1950073,5.171997,5.205017,5.171997,5.2139893,5.212036,5.1870117,5.2160034,5.153015,5.179016,5.078003,4.997986,4.9559937,4.898987,4.76001,4.634033,4.4420166,4.1450195,3.854004,3.8770142,3.743042,3.546997,3.81604,3.856018,3.770996,3.8259888,3.7739868,3.6920166,3.822998,3.994995,4.205017,4.4960327,4.656006,4.7440186,4.778015,4.968994,5.061035,4.9990234,4.973999,4.8690186,4.8389893,4.651001,4.7040405,4.718994,4.6329956,4.5889893,4.465027,4.4869995
10.67804,11.101013,11.580994,12.54303,13.223022,13.827026,14.363037,14.804016,15.165039,15.536011,15.975037,16.254028,16.567017,16.970032,17.202026,17.572998,18.06903,18.387024,18.475037,18.439026,18.275024,18.129028,17.853027,17.513,16.994019,16.481995,16.0,15.876038,15.617004,15.39502,14.968994,14.139038,14.622009,15.027039,15.413025,15.379028,15.280029,15.049988,14.733032,14.64801,14.700012,14.85199,14.7960205,14.505005,14.38501,14.343994,14.202026,14.502014,14.7960205,14.897034,14.64502,14.359009,14.090027,14.165039,14.450012,14.66803,14.700012,14.634033,14.375,14.187988,14.119019,14.002991,13.868042,13.622986,13.7630005,13.796997,13.585022,13.247986,12.946045,12.549011,12.226013,11.798035,11.299988,10.632019,9.902039,9.243042,8.7630005,8.639038,8.872009,8.841003,8.755005,8.587036,8.502014,8.572998,8.752991,8.885986,8.838989,8.79303,8.882996,8.911011,8.902039,8.819031,8.783997,8.712036,8.804993,8.666016,8.60199,8.653992,8.536987,8.590027,8.499023,8.3220215,8.257019,8.416992,8.265015,8.450012,8.665039,8.895996,8.91803,8.850037,8.859009,8.684998,8.569031,8.337036,8.369995,8.864014,8.859985,8.757996,8.718994,8.643005,8.759033,8.971008,9.234009,9.436035,9.541992,9.720032,9.700012,9.799011,9.609009,9.328003,9.007996,8.494019,8.465027,8.236023,8.0460205,8.315002,8.582031,8.955994,9.468994,9.760986,9.8880005,9.9210205,10.02002,10.018005,10.038025,10.03302,9.997009,9.986023,10.127014,10.058044,9.963013,9.770996,9.455994,8.903015,8.116028,7.587036,7.116028,6.6000366,6.098999,5.609009,5.192993,5.101013,4.9890137,4.9370117,4.913025,4.913025,4.921997,4.9119873,4.9570312,4.903015,4.903015,4.9310303,4.927002,5.04303,5.140991,5.1619873,5.1329956,5.130005,5.144043,5.208008,5.194031,5.2180176,5.218994,5.210022,5.144043,5.16803,5.104004,5.0960083,5.0,4.903015,4.6970215,4.4970093,4.2280273,4.052002,3.94104,3.8359985,3.5960083,3.8469849,3.8590088,3.8110352,3.8320312,3.8439941,3.7869873,3.7219849,3.8590088,4.0599976,4.2720337,4.5650024,4.679016,4.819031,4.979004,5.017029,5.002014,5.0200195,4.890991,4.8099976,4.868042,4.910034,4.903015,4.9089966,4.8550415,4.682007,4.729004
11.572998,11.955994,12.473022,13.03302,13.713013,14.337036,15.01001,15.463013,15.786987,16.131042,16.446045,16.754028,17.129028,17.390991,17.648987,18.144043,18.562988,18.707031,18.61499,18.455017,18.254028,18.057007,17.796997,17.471008,16.734009,16.42102,16.153015,16.236023,16.0,15.786011,15.246033,14.687012,15.234009,15.289001,15.348022,15.348999,15.119995,14.7300415,14.41803,14.03302,14.139038,13.963013,13.877014,13.868042,13.655029,13.491028,13.372009,13.298035,13.493042,13.936035,13.898987,13.315002,13.204041,13.200012,13.411987,13.716003,13.700989,13.729004,13.56604,13.484009,13.393005,12.777039,12.848022,12.686035,12.828003,13.083008,13.007996,12.723022,12.25,11.791992,10.876038,10.587036,10.3619995,9.871033,9.200012,8.846008,8.934021,9.06604,9.238037,9.364014,9.242004,8.960022,8.721985,8.531006,8.41803,8.403992,8.350037,8.455017,8.562988,8.702026,8.6380005,8.614014,8.587036,8.630005,8.593018,8.486023,8.47699,8.449036,8.411011,8.364014,8.416016,8.207031,8.046997,8.03302,7.984009,8.187012,8.329041,8.627014,8.624023,8.575012,8.596985,8.523987,8.354004,8.103027,8.048035,8.66803,8.611023,8.481018,8.439026,8.267029,8.187012,8.334045,8.481995,8.651001,8.903015,9.065002,9.077026,9.069031,8.915039,8.64801,8.455994,8.072998,7.94104,7.8500366,7.811035,8.098022,8.125,8.2369995,8.859009,9.346008,9.504028,9.682007,9.890015,9.976013,9.981995,9.957031,9.894043,9.946045,10.041016,9.94104,9.984009,9.644043,9.1050415,8.626038,7.9800415,7.401001,6.976013,6.8129883,6.3220215,5.6480103,5.278015,5.1290283,4.9730225,4.944031,4.921997,4.9470215,4.924988,4.9070435,4.921997,4.920044,4.9039917,4.946045,4.953003,5.067993,5.186035,5.106018,5.130005,5.093994,5.140991,5.137024,5.1619873,5.229004,5.247986,5.2269897,5.229004,5.1970215,5.259033,5.2040405,5.075012,4.9630127,4.762024,4.5880127,4.335022,4.069031,3.934021,3.8400269,3.546997,3.7280273,3.8850098,3.920044,3.8410034,3.8010254,3.8099976,3.7369995,3.8389893,3.9920044,4.189026,4.53302,4.6799927,4.843994,4.895996,4.9609985,4.9890137,5.0,5.03302,5.0180054,5.0200195,5.0109863,5.0,5.0390015,4.9710083,4.752014,4.913025
11.937012,12.346008,12.968994,13.519043,14.054016,14.8220215,15.519043,15.9800415,16.385986,16.863037,17.160034,17.382996,17.650024,17.811035,18.265015,18.627014,18.843994,18.825989,18.58899,18.40503,18.244995,18.090027,17.807007,17.470032,16.78302,16.517029,16.5,16.72699,16.584045,15.708008,15.173035,14.894043,15.770996,15.531006,15.528992,15.494019,15.113037,14.859985,14.30304,13.846985,13.618042,13.2960205,13.27301,12.879028,12.710022,12.635986,12.515991,12.640015,12.471008,12.752991,12.564026,12.419006,12.2960205,12.142029,12.530029,12.635986,12.73999,12.791992,12.666016,12.652039,12.39801,11.743042,11.265015,11.674011,11.776001,12.403015,12.436035,12.118042,11.64801,11.095032,9.699036,9.289001,9.424988,9.11499,8.872986,8.882996,9.070007,9.421997,9.630005,9.824036,9.625,9.340027,9.078003,8.651001,8.468018,8.382996,8.315002,8.289001,8.309021,8.36499,8.402039,8.4800415,8.449036,8.471008,8.458008,8.460022,8.411987,8.299011,8.16803,8.231018,8.164001,8.106995,8.014038,7.8710327,7.837036,7.863037,8.038025,8.38501,8.345032,8.328003,8.389038,8.369019,8.189026,7.9349976,7.8120117,8.262024,8.369019,8.171997,8.27002,8.174011,7.962036,7.9819946,8.05603,8.209045,8.101013,8.255005,8.328003,8.009033,7.8900146,7.7890015,7.8170166,7.6970215,7.6220093,7.670044,7.73999,7.7560425,7.6879883,7.738037,8.202026,8.692993,9.092041,9.243042,9.434998,9.593994,9.640015,9.765015,9.915039,9.799988,9.809998,9.747986,9.824036,9.18103,8.783997,8.325012,7.8080444,7.3320312,6.9609985,6.718994,6.3930054,5.7820435,5.333008,5.071045,4.9680176,4.9540405,4.9420166,4.915039,4.920044,4.9110107,4.877014,4.9039917,4.9190063,4.9110107,5.038025,5.1500244,5.1329956,5.0859985,5.0820312,5.127014,5.1019897,5.1640015,5.1780396,5.208008,5.241028,5.229004,5.2420044,5.2369995,5.2890015,5.2770386,5.1970215,4.9589844,4.718994,4.517029,4.377014,4.0270386,3.9639893,3.868042,3.7659912,3.644043,3.821045,4.0010376,3.8510132,3.8339844,3.8290405,3.7860107,3.8389893,3.9750366,4.119995,4.429016,4.567993,4.795044,4.91803,4.9750366,4.9370117,4.9940186,5.0300293,5.0620117,5.0629883,5.0530396,5.075012,5.078003,5.009033,4.921997,5.0369873
12.517029,12.846008,13.447998,14.135986,14.427002,14.945007,15.755005,16.38501,16.950989,17.363037,17.722046,17.992004,18.087036,18.24701,18.700012,18.937988,18.919006,18.762024,18.509033,18.36499,18.226013,17.950989,17.736023,17.605042,17.018005,16.700012,16.908997,16.674988,16.145996,15.455017,15.618042,15.4210205,15.773987,15.528992,15.442017,15.281006,15.127014,14.760986,14.332031,13.781006,13.499023,12.970032,12.945007,12.359009,12.713013,12.341003,12.311035,12.692993,12.440002,11.835022,12.210022,12.377991,12.31604,11.914001,11.697998,11.531006,11.897034,11.705017,11.4869995,11.832031,11.782043,11.377014,11.416016,12.030029,12.090027,12.030029,11.919006,11.567017,11.158997,10.821045,9.919006,9.161987,9.015991,8.962036,9.092041,9.127014,9.510986,9.767029,9.791992,9.720032,9.647034,9.395996,8.937012,8.700012,8.52002,8.36499,8.262024,8.247009,8.203003,8.282043,8.249023,8.342041,8.304993,8.291992,8.429993,8.345032,8.302002,8.186035,8.0720215,8.0060425,8.01001,7.993042,7.9370117,7.804016,7.700012,7.7839966,7.88501,8.085022,8.113037,8.085999,8.075012,8.121033,8.036011,7.901001,7.7820435,7.90802,7.9260254,7.8320312,7.967041,7.9349976,7.8619995,7.8309937,7.8480225,7.7770386,7.580017,7.6000366,7.4800415,7.2139893,6.796997,6.611023,7.0289917,7.0150146,7.0300293,7.2139893,7.5150146,7.4609985,7.3320312,7.290039,7.618042,7.936035,8.288025,8.468994,8.684998,8.900024,9.044006,9.200989,9.345032,9.23999,9.085022,9.092041,8.97699,8.6050415,8.234009,7.8900146,7.5700073,7.196045,6.8880005,6.5369873,6.421997,5.8690186,5.231018,5.0480347,4.950012,4.9400024,4.944031,4.9570312,4.9450073,4.924988,4.916992,4.946045,4.9370117,4.924011,5.0220337,5.1310425,5.151001,5.118042,5.0620117,5.040039,5.137024,5.122986,5.1260376,5.1539917,5.1970215,5.223999,5.243042,5.3030396,5.309021,5.2700195,5.1589966,4.9589844,4.6430054,4.545044,4.377014,4.0839844,3.9540405,3.8810425,3.8760376,3.7180176,3.7529907,3.9310303,3.887024,3.8729858,3.8859863,3.7529907,3.8550415,4.002014,4.1619873,4.476013,4.618042,4.7860107,4.8760376,4.936035,5.0150146,5.023987,5.090027,5.078003,5.1220093,5.13501,5.1400146,5.1450195,5.11499,5.1119995,5.098999
13.002991,13.522034,13.937012,14.525024,15.082031,15.457031,15.843018,16.501038,17.192017,17.703003,18.137024,18.471008,18.635986,18.752014,19.036987,19.184998,19.121033,18.92102,18.635986,18.408997,18.16101,17.936035,17.799011,17.781006,17.687988,17.390991,16.881042,16.277039,15.702026,15.850037,15.952026,15.978027,15.809998,15.382019,14.971985,14.900024,14.624023,14.041992,13.424011,12.996033,12.997986,12.736023,12.661987,12.744995,12.825989,12.6119995,12.747986,12.752991,12.419006,12.282043,12.374023,12.595032,12.676025,12.790039,12.613037,12.473022,12.380005,12.29303,12.330994,12.163025,11.814026,12.155029,12.054016,12.307007,12.05603,11.736023,11.445007,11.196045,10.892029,10.584045,10.071045,9.575989,9.584045,9.690002,9.55603,9.614014,9.788025,9.911987,9.861023,9.809021,9.677002,9.295044,8.889038,8.614014,8.481018,8.453003,8.380005,8.247009,8.160034,8.202026,8.184021,8.192017,8.184021,8.145996,8.283997,8.218994,8.092041,8.064026,7.950989,7.8340454,7.9160156,7.828003,7.762024,7.6799927,7.6799927,7.700012,7.7390137,7.837036,7.9039917,7.762024,7.773987,7.8080444,7.825012,7.723999,7.7020264,7.7420044,7.752014,7.6520386,7.682007,7.7579956,7.7750244,7.7130127,7.7510376,7.497986,7.1170044,6.861023,6.645996,6.4119873,6.291992,6.1500244,6.3099976,6.2349854,6.259033,6.8049927,6.8359985,6.846985,6.569031,6.578003,6.848999,7.3120117,7.639038,7.791992,8.065002,8.221985,8.42804,8.491028,8.494995,8.510986,8.390015,8.190002,8.085022,8.004028,7.8950195,7.592041,7.3519897,7.002014,6.645996,6.4210205,6.0809937,5.644043,5.189026,4.997986,4.9609985,4.944031,4.946045,4.932007,4.968994,4.9230347,4.968994,4.944031,4.967041,4.939026,5.0250244,5.1170044,5.127014,5.1099854,5.046997,5.014038,5.101013,5.085022,5.075012,5.13501,5.177002,5.171997,5.2440186,5.2200317,5.291992,5.2089844,5.160034,4.9379883,4.7210083,4.567993,4.3599854,4.078003,3.9750366,3.9420166,3.915039,3.8120117,3.6680298,3.835022,3.9240112,3.915039,3.8900146,3.8179932,3.9509888,4.075012,4.295044,4.468994,4.6030273,4.729004,4.868042,4.9000244,5.026001,5.040039,5.06604,5.0820312,5.1359863,5.221985,5.200012,5.218994,5.196045,5.174011,5.1970215
13.591003,14.139038,14.545044,15.093018,15.520996,16.098999,16.333008,16.535034,17.302002,17.952026,18.420044,18.778015,19.025024,19.21399,19.294006,19.380005,19.112,18.916016,18.709045,18.411987,18.174011,18.097046,18.03601,17.932007,17.707031,17.174988,16.468994,15.984985,16.129028,16.249023,16.346985,16.17102,15.936035,15.3880005,14.94104,14.791992,14.216003,13.371033,13.150024,13.179993,13.077026,12.981018,12.911987,12.950989,12.991028,12.757996,12.89502,12.833008,12.52002,12.29303,12.717041,13.032043,13.205017,13.565002,13.663025,13.856995,13.467041,13.288025,13.155029,13.044006,12.8810425,12.833008,12.773987,12.539001,12.174011,11.519043,11.048035,10.783997,10.598022,10.288025,10.010986,9.978027,9.967041,9.967041,9.799988,9.7960205,9.821045,9.93103,9.812012,9.7300415,9.470032,9.139038,8.846985,8.639038,8.549011,8.440002,8.372009,8.226013,8.147034,8.127991,8.186035,8.116028,8.069031,7.9920044,8.06604,8.134033,8.033997,7.9330444,7.8380127,7.821045,7.846985,7.8460083,7.767029,7.6870117,7.6690063,7.679016,7.6240234,7.677002,7.6610107,7.644043,7.6830444,7.733032,7.7390137,7.6190186,7.575012,7.611023,7.5790405,7.5390015,7.4700317,7.479004,7.5200195,7.4730225,7.4050293,7.0289917,6.458008,6.231018,6.337036,6.2869873,6.2540283,6.2460327,6.208008,6.171997,6.156006,6.1240234,6.0150146,5.91803,5.814026,5.7529907,5.7890015,5.98999,6.5700073,6.765991,6.924011,7.1690063,7.569031,7.7750244,7.8450317,7.828003,7.8410034,7.502014,7.424988,7.434021,7.309021,7.2160034,7.1030273,6.851013,6.5010376,6.4110107,5.903015,5.2770386,5.0790405,5.0390015,4.9589844,4.946045,4.9570312,4.947998,4.955017,4.936035,4.9310303,4.947998,4.9680176,4.9020386,5.0339966,5.1240234,5.1260376,5.0270386,5.014038,4.9520264,4.968994,4.9960327,5.017029,5.017029,5.057007,5.119995,5.1610107,5.215027,5.2800293,5.205017,5.0360107,4.819031,4.6570435,4.54303,4.267029,4.075989,3.9780273,3.988037,3.994995,3.9050293,3.7040405,3.7540283,3.9940186,3.9400024,3.9710083,3.8519897,3.9979858,4.0560303,4.0880127,4.243042,4.53302,4.764038,4.8930054,4.9540405,5.054016,5.071045,5.122986,5.1810303,5.2139893,5.259033,5.243042,5.252014,5.2750244,5.2540283,5.1760254
13.809021,14.66803,15.156006,15.655029,15.983032,16.42804,16.940002,17.229004,17.789001,18.197021,18.549011,18.892029,19.220032,19.445007,19.559998,19.580017,19.264038,18.934998,18.835022,18.41101,18.174988,18.080017,18.093994,17.822021,17.596985,16.924988,16.395996,16.538025,16.67102,16.618042,16.453003,16.038025,15.778015,15.184998,14.864014,14.536011,13.933044,13.259033,13.353027,13.484009,13.494019,13.239014,13.264038,12.97699,12.958008,12.742004,13.044006,13.028992,12.640015,12.757019,13.114014,13.593994,14.343994,14.815002,14.78302,14.709045,14.446045,13.760986,13.687988,13.549011,13.392029,13.192993,13.052002,12.955017,12.533997,11.997009,11.272034,10.9869995,10.629028,10.265015,10.169006,10.017029,9.973999,10.033997,10.082031,9.997986,10.018005,9.897034,9.80603,9.720032,9.450989,9.384033,9.054016,8.690002,8.577026,8.437988,8.301025,8.218994,8.140015,8.093994,8.122009,8.101013,7.9920044,7.9960327,7.950012,7.936035,7.916992,7.8430176,7.7960205,7.7630005,7.7609863,7.744995,7.715027,7.651001,7.663025,7.627014,7.5889893,7.5270386,7.5220337,7.4570312,7.479004,7.4750366,7.5740356,7.5650024,7.4700317,7.4570312,7.299988,7.2269897,7.083008,6.9940186,6.9050293,6.9230347,6.880005,6.6480103,6.3720093,6.517029,6.5230103,6.5629883,6.5150146,6.1710205,6.174988,6.1030273,5.9849854,6.118042,5.8080444,5.934021,5.8740234,5.7540283,5.764038,5.5930176,5.6570435,5.785034,5.8569946,6.1030273,6.415039,6.8010254,6.932007,7.170044,7.2200317,6.9540405,6.8859863,6.9260254,6.7860107,6.9140015,6.8129883,6.665039,6.40802,6.2839966,5.7070312,5.1430054,5.096985,5.017029,4.9710083,4.962036,4.971985,4.9379883,4.936035,4.910034,4.9639893,4.94104,4.880005,4.863037,4.898987,5.101013,5.1050415,5.0790405,4.9700317,4.91803,4.8900146,4.939026,4.986023,4.993042,5.01001,5.1050415,5.1019897,5.170044,5.226013,5.1780396,4.9819946,4.700012,4.5770264,4.4680176,4.2160034,4.0580444,4.0029907,4.0180054,4.0130005,4.0,3.8740234,3.7180176,3.9440308,3.9869995,3.929016,3.8670044,3.9030151,3.9760132,4.0010376,4.163025,4.5180054,4.795044,4.8670044,4.9990234,5.0180054,5.1050415,5.13501,5.15802,5.217041,5.241028,5.333008,5.3450317,5.387024,5.276001,5.2720337
13.494019,14.718994,15.548035,16.225037,16.572021,16.993042,17.42804,17.825012,18.080017,18.353027,18.592041,18.991028,19.223999,19.408997,19.647034,19.752014,19.421997,19.012024,18.880005,18.471008,18.22699,18.189026,18.075012,17.885986,17.398987,16.679993,16.619019,17.023987,17.104004,16.777039,16.385986,15.971008,15.700989,15.514038,15.054993,14.118042,13.834045,13.877014,13.854004,13.892029,13.825989,13.708008,13.639038,13.467041,13.205017,13.093994,13.348022,13.173035,12.936035,13.116028,13.717041,14.471985,15.015991,15.407043,15.463013,15.580994,15.325989,14.924011,14.645996,14.416016,14.387024,13.954041,13.55603,13.194031,12.981018,12.588013,12.032043,11.525024,10.919006,10.368042,10.343018,10.130005,10.080994,10.116028,10.268005,10.302002,10.113037,9.996033,9.929016,9.705017,9.484985,9.420044,9.122986,8.827026,8.527039,8.465027,8.343994,8.244995,8.207031,8.109009,8.018005,7.965027,8.015015,7.9639893,7.892029,7.880005,7.884033,7.848999,7.788025,7.7789917,7.773987,7.7560425,7.700012,7.7160034,7.7059937,7.6359863,7.571045,7.6000366,7.5029907,7.4520264,7.439026,7.416992,7.4210205,7.368042,7.2440186,7.142029,7.0889893,6.9700317,6.915039,6.9710083,6.895996,6.5530396,6.5040283,6.375,6.4020386,6.752014,6.7510376,6.944031,7.0289917,6.6450195,6.2130127,6.1310425,6.106018,6.005005,6.0220337,5.927002,5.833008,5.7910156,5.7210083,5.509033,5.4589844,5.486023,5.4920044,5.4990234,5.6690063,5.7789917,6.0339966,6.212036,6.375,6.3389893,6.5530396,6.6570435,6.692993,6.744995,6.757019,6.5700073,6.3810425,6.04303,5.5670166,5.101013,5.0079956,4.9869995,4.958008,4.962036,4.9750366,4.968994,4.9160156,4.94104,4.9160156,4.882019,4.9039917,4.8389893,4.880005,4.9990234,5.1019897,5.0930176,4.98999,4.903015,4.835022,4.843994,4.8690186,4.8880005,4.9260254,4.9490356,5.071045,5.108032,5.144043,5.0320435,4.8120117,4.632019,4.520996,4.337036,4.212036,4.06604,4.064026,4.035034,4.0040283,3.9979858,3.8850098,3.889038,3.7980347,3.9979858,4.007019,3.880005,3.9039917,3.9710083,4.0300293,4.1690063,4.3389893,4.6570435,4.802002,4.9589844,4.9609985,5.116028,5.160034,5.2200317,5.285034,5.3640137,5.372986,5.382019,5.377014,5.368042,5.3980103
13.10199,14.494019,15.340027,15.939026,16.801025,17.450012,18.00299,18.390015,18.69403,18.907043,18.999023,19.259033,19.381042,19.403015,19.504028,19.457031,19.209045,19.080994,18.888,18.632996,18.463013,18.28003,18.15503,17.940002,17.677002,17.41504,16.937012,17.473022,17.411987,16.718994,16.209045,15.979004,15.936035,15.738037,15.106995,14.010986,14.385986,14.5720215,14.596985,14.416016,14.408997,14.343994,14.322998,13.91803,13.570007,13.194031,13.473022,13.30603,13.132996,13.697998,14.402039,15.40802,15.718994,16.082031,16.264038,16.113037,16.045044,15.815002,15.382019,15.015991,15.01001,14.606018,14.10199,13.776001,13.664001,13.35199,12.736023,11.835022,10.942017,10.608032,10.674011,10.243042,10.2300415,10.252991,10.403015,10.481018,10.348999,10.229004,10.040039,9.809021,9.622986,9.496033,9.380005,8.997009,8.575012,8.458008,8.348022,8.30304,8.183044,8.151001,8.058044,7.955017,7.9470215,7.944031,7.9710083,7.9210205,7.872986,7.8500366,7.825012,7.7960205,7.7960205,7.694031,7.677002,7.6220093,7.5880127,7.622986,7.651001,7.593994,7.523987,7.5440063,7.4260254,7.3950195,7.3220215,7.255005,7.252014,7.0369873,7.0790405,7.0460205,6.9750366,6.9589844,6.94104,6.890991,6.8200073,6.6640015,6.858032,7.054016,7.1240234,7.2109985,7.1879883,7.0220337,6.781006,6.4379883,6.252014,6.1990356,6.116028,6.071045,5.8950195,5.8779907,5.851013,5.670044,5.5079956,5.450989,5.3970337,5.3270264,5.31604,5.3670044,5.434021,5.6310425,6.0250244,6.3030396,6.3170166,6.505005,6.5410156,6.6140137,6.6099854,6.375,6.122986,5.6619873,5.212036,5.028015,4.986023,4.9960327,4.9780273,4.9990234,5.0510254,4.946045,4.915039,4.854004,4.887024,4.811035,4.858032,4.88501,4.8270264,4.910034,5.0300293,5.0720215,4.9630127,4.8519897,4.8150024,4.8049927,4.781006,4.7789917,4.840027,4.872986,4.9420166,5.020996,5.0560303,4.882019,4.7040405,4.6240234,4.4609985,4.36499,4.1019897,4.054016,4.054016,4.038025,4.031006,3.981018,3.9400024,3.9030151,3.8370361,4.052002,4.144043,3.9110107,3.9360352,4.0599976,4.290039,4.346985,4.509033,4.6050415,4.7349854,4.8619995,4.986023,5.0790405,5.1610107,5.2680054,5.354004,5.38501,5.41803,5.4230347,5.450012,5.4310303,5.5109863
